# .PCD v0.7 - Point Cloud Data file format
VERSION 0.7
FIELDS x y z
SIZE 4 4 4
TYPE F F F
COUNT 1 1 1
WIDTH 1486
HEIGHT 1
VIEWPOINT 0 0 0 1 0 0 0
POINTS 1486
DATA ascii
-1.1871967 -0.82475823 1.9160001
-1.1769598 -0.82133776 1.909
-1.190092 -0.83426845 1.9400001
-1.1859577 -0.83515769 1.9430001
-1.1830342 -0.83691168 1.9480001
-1.1806988 -0.83909959 1.9540001
-1.1693227 -0.83485317 1.9450001
-1.1633986 -0.83447796 1.9450001
-1.1777221 -0.84868985 1.9790001
-1.1569201 -0.83760428 1.9540001
-1.1439402 -0.83210421 1.9420002
-1.1287014 -0.82490128 1.9260001
-1.124649 -0.82584423 1.9290001
-1.1258109 -0.83064336 1.9410001
-1.130952 -0.83843845 1.96
-1.1227885 -0.83639789 1.9560001
-1.1100925 -0.83094466 1.9440001
-1.1008879 -0.82806456 1.9380001
-1.0996413 -0.83117139 1.9460001
-1.0859917 -0.82488781 1.932
-1.0774683 -0.82245505 1.927
-1.0806649 -0.82898879 1.9430001
-1.0810112 -0.83339018 1.9540001
-1.0724983 -0.8309716 1.9490001
-1.0623828 -0.82728076 1.9410001
-1.0594015 -0.82913601 1.9460001
-1.0628979 -0.83610588 1.9630001
-1.0641501 -0.84137255 1.9760001
-1.054088 -0.83770156 1.9680001
-1.0494087 -0.83829272 1.9700001
-1.0394288 -0.83463389 1.9620001
-1.0237089 -0.82630354 1.9430001
-1.0227793 -0.82988662 1.9520001
-1.0228478 -0.83432174 1.9630001
-1.0213065 -0.83748382 1.9710001
-1.0099369 -0.83257729 1.96
-1.0006887 -0.82937634 1.9530001
-0.99046963 -0.82533187 1.9440001
-0.98284316 -0.8234157 1.9400001
-0.9838109 -0.82871795 1.9530001
-0.97619647 -0.82680964 1.9490001
-0.97359234 -0.8291471 1.955
-0.96997076 -0.83063924 1.9590001
-0.96141046 -0.82789505 1.9530001
-0.95289147 -0.82515591 1.9470001
-0.95073867 -0.82792985 1.9540001
-0.9490363 -0.83112955 1.9620001
-0.94392872 -0.83136666 1.9630001
-0.94073397 -0.83330089 1.9680001
-0.93894255 -0.83650762 1.9760001
-0.93333328 -0.83633041 1.9760001
-0.92632151 -0.83488715 1.973
-0.92026603 -0.8342939 1.9720001
-0.914222 -0.83370399 1.9710001
-0.91095537 -0.83565509 1.9760001
-0.90445882 -0.83464867 1.9740001
-0.89843434 -0.8340686 1.973
-0.89151585 -0.83264643 1.9700001
-0.88776749 -0.83418578 1.9740001
-0.88132042 -0.83319265 1.9720001
-0.87488967 -0.83220273 1.9700001
-0.86891627 -0.83163834 1.9690001
-0.86646128 -0.83445543 1.9760001
-0.86310041 -0.83642989 1.9810001
-0.85582024 -0.83460706 1.9770001
-0.84985715 -0.83405375 1.9760001
-0.84561342 -0.83519149 1.9790001
-0.84475327 -0.8397072 1.9900001
-0.83666688 -0.83705193 1.9840001
-0.82778043 -0.83355635 1.9760001
-0.82476848 -0.83596915 1.9820001
-0.81387353 -0.8303712 1.9690001
-0.81126618 -0.83321047 1.9760001
-0.80699259 -0.83436495 1.9790001
-0.80149102 -0.83425683 1.9790001
-0.79478651 -0.8328867 1.9760001
-0.7900995 -0.83362639 1.978
-0.78857821 -0.83773941 1.988
-0.78227818 -0.83679754 1.9860001
-0.77521032 -0.83501554 1.9820001
-0.76894468 -0.83407861 1.9800001
-0.76500684 -0.83567125 1.9840001
-0.7606672 -0.83684456 1.9870001
-0.75631404 -0.83801973 1.9900001
-0.75081539 -0.83793354 1.9900001
-0.74419612 -0.83658624 1.9870001
-0.73833984 -0.83608323 1.9860001
-0.73138487 -0.83431953 1.9820001
-0.72738475 -0.83592522 1.9860001
-0.72336525 -0.8375327 1.9900001
-0.71896553 -0.83872074 1.9930001
-0.71347779 -0.83864808 1.9930001
-0.70550597 -0.83563209 1.9860001
-0.69969004 -0.83514267 1.9850001
-0.69353211 -0.83423424 1.983
-0.68877566 -0.83501053 1.9850001
-0.68366605 -0.83536774 1.9860001
-0.67821169 -0.83530593 1.9860001
-0.673437 -0.83608693 1.988
-0.6689893 -0.83728993 1.9910001
-0.66252762 -0.83597136 1.988
-0.65410131 -0.83213162 1.9790001
-0.64802074 -0.83123714 1.9770001
-0.6445533 -0.83370763 1.983
-0.64169937 -0.83702016 1.9910001
-0.63560778 -0.83612996 1.9890001
-0.62952882 -0.83524126 1.9870001
-0.62220621 -0.83267283 1.9810001
-0.6180315 -0.83430904 1.9850001
-0.61291069 -0.83468562 1.9860001
-0.607786 -0.83506352 1.9870001
-0.60144466 -0.83376169 1.9840001
-0.59512115 -0.83246124 1.9810001
-0.59208989 -0.83578438 1.9890001
-0.58695179 -0.83616728 1.9900001
-0.58239388 -0.83739156 1.9930001
-0.57463664 -0.8339954 1.9850001
-0.56807125 -0.83228105 1.9810001
-0.56266499 -0.83224857 1.9810001
-0.55838519 -0.83389753 1.9850001
-0.55436325 -0.83596754 1.9900001
-0.54755652 -0.83383781 1.9850001
-0.54187077 -0.83338952 1.9840001
-0.53646183 -0.83336222 1.9840001
-0.53292763 -0.83627617 1.9910001
-0.52644175 -0.83457083 1.9870001
-0.51997864 -0.83286643 1.983
-0.51379776 -0.83158314 1.9800001
-0.50917459 -0.83282065 1.983
-0.50479001 -0.83447897 1.9870001
-0.49963057 -0.83487815 1.988
-0.49396917 -0.83443844 1.9870001
-0.4880681 -0.83357954 1.9850001
-0.48339441 -0.83482116 1.988
-0.47870511 -0.8360635 1.9910001
-0.47400013 -0.83730662 1.9940001
-0.46786949 -0.83603096 1.9910001
-0.46338171 -0.83769542 1.9950001
-0.45749545 -0.83684111 1.9930001
-0.45252794 -0.83766717 1.9950001
-0.44575721 -0.8351348 1.9890001
-0.44101217 -0.83638209 1.9920001
-0.43581402 -0.8367902 1.9930001
-0.43169054 -0.83929807 1.9990001
-0.42625555 -0.83928752 1.9990001
-0.42061055 -0.83885777 1.9980001
-0.41372451 -0.83590943 1.9910001
-0.40769723 -0.83464104 1.988
-0.40249616 -0.83505273 1.9890001
-0.39709038 -0.83504504 1.9890001
-0.39089715 -0.83335847 1.9850001
-0.38550285 -0.83335179 1.9850001
-0.38030034 -0.83376533 1.9860001
-0.37584779 -0.83585864 1.9910001
-0.37043804 -0.83585328 1.9910001
-0.36502856 -0.83584839 1.9910001
-0.35907748 -0.83458447 1.988
-0.35403243 -0.83542001 1.9900001
-0.34967744 -0.83793509 1.9960001
-0.3447727 -0.83919108 1.9990001
-0.33900303 -0.83834851 1.9970001
-0.33291033 -0.83666664 1.9930001
-0.32766113 -0.83708405 1.9940001
-0.32289153 -0.83876133 1.9980001
-0.31746471 -0.83875954 1.9980001
-0.31188184 -0.83833838 1.9970001
-0.30615109 -0.83749759 1.9950001
-0.30073282 -0.8374967 1.9950001
-0.29487053 -0.83623654 1.9920001
-0.28916994 -0.83539659 1.9900001
-0.28419331 -0.8366558 1.9930001
-0.27878076 -0.8366558 1.9930001
-0.27350545 -0.83707571 1.9940001
-0.26822481 -0.83749598 1.9950001
-0.26267529 -0.83707672 1.9940001
-0.25713125 -0.83665776 1.9930001
-0.25134009 -0.83539921 1.9900001
-0.2460596 -0.83582014 1.9910001
-0.24089453 -0.83666086 1.9930001
-0.23595499 -0.83834136 1.9970001
-0.23053193 -0.83834279 1.9970001
-0.22477071 -0.83708489 1.9940001
-0.21935585 -0.83708656 1.9940001
-0.21426284 -0.83834761 1.9970001
-0.20873524 -0.83792961 1.9960001
-0.20290746 -0.83625215 1.9920001
-0.19749802 -0.83625412 1.9920001
-0.19228138 -0.83709562 1.9940001
-0.18705387 -0.83793724 1.9960001
-0.18199749 -0.8396185 2
-0.17674281 -0.84046018 2.0020001
-0.17156279 -0.84172165 2.0050001
-0.16611791 -0.84172374 2.0050001
-0.16099355 -0.84340507 2.0090001
-0.1550732 -0.84088826 2.003
-0.14948428 -0.84005082 2.0010002
-0.14383416 -0.8387934 1.9980001
-0.13854669 -0.83963507 2
-0.13298211 -0.83879751 1.9980001
-0.12774755 -0.84005898 2.0010002
-0.12225215 -0.83964092 2
-0.11687899 -0.84006274 2.0010002
-0.11127759 -0.83880502 1.9980001
-0.10611627 -0.8409059 2.003
-0.10057593 -0.8400681 2.0010002
-0.095093958 -0.8396498 2
-0.089617409 -0.83923155 1.9990001
-0.084188387 -0.83923316 1.9990001
-0.078798711 -0.83965433 2
-0.073513642 -0.84133512 2.0040002
-0.068342686 -0.84469497 2.0120001
-0.062971987 -0.84595555 2.0150001
-0.057385243 -0.84427744 2.0110002
-0.051923472 -0.84427845 2.0110002
-0.046484783 -0.8446992 2.0120001
-0.040979486 -0.84386027 2.01
-0.035449699 -0.84218168 2.006
-0.030016406 -0.84260231 2.0070002
-0.024614383 -0.84428209 2.0110002
-0.019181101 -0.84554201 2.0140002
-0.013704285 -0.8451224 2.013
-0.0082288058 -0.84428298 2.0110002
-0.0027655617 -0.84386319 2.01
0.0026949306 -0.8442831 2.0110002
0.0081446301 -0.84302348 2.0080001
0.013591575 -0.8426035 2.0070002
0.019023595 -0.8417635 2.0050001
0.02449356 -0.84260279 2.0070002
0.029944541 -0.84260231 2.0070002
0.035377868 -0.84218168 2.006
0.040887166 -0.84344047 2.0090001
0.046366606 -0.84385949 2.01
0.051954605 -0.84595776 2.0150001
0.057341736 -0.84469724 2.0120001
0.06289985 -0.84595567 2.0150001
0.068202779 -0.84385526 2.01
0.073698424 -0.84427392 2.0110002
0.079199463 -0.84469229 2.0120001
0.084832154 -0.84637022 2.016
0.090217777 -0.84552908 2.0140002
0.095449962 -0.84342831 2.0090001
0.1009061 -0.84342664 2.0090001
0.10657398 -0.84510422 2.013
0.11204093 -0.84510243 2.013
0.11768296 -0.84635997 2.016
0.12334126 -0.84761751 2.0190001
0.12901583 -0.84887511 2.0220001
0.13464014 -0.84971279 2.0240002
0.13965215 -0.84677207 2.0170002
0.14505778 -0.84635007 2.016
0.15030865 -0.8450886 2.013
0.15577537 -0.84508651 2.013
0.16116193 -0.84466463 2.0120001
0.16646022 -0.8438229 2.01
0.17208976 -0.84466046 2.0120001
0.17728886 -0.84339893 2.0090001
0.18301746 -0.84465623 2.0120001
0.18857497 -0.84507406 2.013
0.19433066 -0.84633136 2.016
0.19960712 -0.84548992 2.0140002
0.20527998 -0.8463276 2.016
0.21096368 -0.84716535 2.0180001
0.2162292 -0.84632385 2.016
0.22170384 -0.84632218 2.016
0.22740385 -0.84716022 2.0180001
0.23334551 -0.84883785 2.0220001
0.2390727 -0.84967601 2.0240002
0.24408571 -0.84799546 2.02
0.24932417 -0.84715474 2.0180001
0.25417295 -0.84505457 2.013
0.25989747 -0.84589326 2.0150001
0.26563293 -0.84673214 2.0170002
0.27084166 -0.84589201 2.0150001
0.27645087 -0.84631127 2.016
0.28206569 -0.84673095 2.0170002
0.28811362 -0.84841013 2.0210001
0.29316643 -0.84715086 2.0180001
0.29849899 -0.84673154 2.0170002
0.30427834 -0.84757179 2.0190001
0.31037551 -0.84925187 2.023
0.31586999 -0.84925306 2.023
0.32136452 -0.84925449 2.023
0.32669768 -0.84883648 2.0220001
0.3325184 -0.84967816 2.0240002
0.3381831 -0.85010034 2.0250001
0.34249565 -0.84716439 2.0180001
0.34728768 -0.84548825 2.0140002
0.35310906 -0.84633118 2.016
0.35947514 -0.84843409 2.0210001
0.36514619 -0.84885794 2.0220001
0.3704564 -0.84844279 2.0210001
0.37650537 -0.84970713 2.0240002
0.38124987 -0.84803337 2.02
0.38616434 -0.84677976 2.0170002
0.39242196 -0.84846532 2.0210001
0.39850473 -0.84973168 2.0240002
0.40460423 -0.85099864 2.0270002
0.40970865 -0.85016674 2.0250001
0.41521263 -0.85017508 2.0250001
0.4203015 -0.84934431 2.023
0.42622188 -0.85019356 2.0250001
0.43194026 -0.85062349 2.026
0.43744865 -0.8506341 2.026
0.44208297 -0.848966 2.0220001
0.4471387 -0.84813815 2.02
0.45263219 -0.84815073 2.02
0.45880663 -0.84942359 2.023
0.46453893 -0.84985751 2.0240002
0.47120616 -0.85197175 2.029
0.47649145 -0.85156727 2.0280001
0.482485 -0.85242337 2.0300002
0.48728803 -0.85118043 2.0270002
0.49231857 -0.85035837 2.0250001
0.49684721 -0.84869719 2.0210001
0.50284618 -0.84955633 2.023
0.50961077 -0.85167634 2.0280001
0.51564127 -0.85253751 2.0300002
0.5211699 -0.85255945 2.0300002
0.52618062 -0.85174245 2.0280001
0.53249216 -0.85302633 2.0310001
0.53829116 -0.8534711 2.0320001
0.54409653 -0.85391694 2.033
0.54963809 -0.85394388 2.033
0.55408823 -0.85229158 2.029
0.56017244 -0.85316056 2.0310001
0.56571174 -0.85319066 2.0310001
0.5726583 -0.85532218 2.036
0.57764548 -0.85451424 2.0340002
0.58348298 -0.85496771 2.0350001
0.58932728 -0.85542238 2.036
0.59605491 -0.85713899 2.0400002
0.60192072 -0.8575961 2.0410001
0.60630536 -0.85595369 2.0370002
0.61157054 -0.85557288 2.036
0.61834747 -0.8572948 2.0400002
0.62606514 -0.86027884 2.0470002
0.63197112 -0.86074281 2.0480001
0.63663882 -0.85952681 2.0450001
0.64380425 -0.86167502 2.0500002
0.64941478 -0.86172295 2.0500002
0.65598565 -0.86303353 2.0530002
0.65806293 -0.85846001 2.0420001
0.66365683 -0.8585121 2.0420001
0.66728622 -0.85604316 2.036
0.67352843 -0.85693926 2.0380001
0.67745101 -0.85489351 2.033
0.68504387 -0.85747492 2.039
0.6913169 -0.8583762 2.0410001
0.69657868 -0.85801744 2.0400002
0.70080441 -0.85639822 2.036
0.70535749 -0.8552013 2.033
0.71304369 -0.85779214 2.039
0.71865046 -0.85786092 2.039
0.72639096 -0.86045605 2.0450001
0.72951353 -0.85758305 2.0380001
0.73548567 -0.858078 2.039
0.74001223 -0.85689163 2.036
0.74598986 -0.85739058 2.0370002
0.75049967 -0.85620767 2.0340002
0.75611091 -0.85628957 2.0340002
0.76284862 -0.85763663 2.0370002
0.76960593 -0.85898608 2.0400002
0.77448249 -0.85823208 2.0380001
0.77820283 -0.85621667 2.033
0.78382647 -0.85630906 2.033
0.7921716 -0.85935247 2.0400002
0.7978211 -0.85944957 2.0400002
0.80268633 -0.85870636 2.0380001
0.80754381 -0.85796511 2.036
0.81518972 -0.86017627 2.0410001
0.82367134 -0.86323333 2.0480001
0.83138573 -0.86545044 2.0530002
0.83831608 -0.86682725 2.056
0.84280407 -0.86567718 2.0530002
0.84355944 -0.86073363 2.0410001
0.84633255 -0.85790026 2.0340002
0.85284054 -0.85886514 2.036
0.86273748 -0.86320812 2.046
0.87142116 -0.86628926 2.0530002
0.87758476 -0.86684179 2.0540001
0.88289839 -0.86655313 2.0530002
0.88691247 -0.86500055 2.049
0.89482987 -0.8672505 2.0540001
0.89839542 -0.86528093 2.049
0.90017301 -0.86162442 2.0400002
0.90678966 -0.8626163 2.0420001
0.91208196 -0.86234385 2.0410001
0.91377658 -0.85869384 2.0320001
0.9154256 -0.85504544 2.023
0.92203802 -0.856049 2.0250001
0.93279052 -0.86086142 2.036
0.9390012 -0.86144996 2.0370002
0.94568688 -0.86246485 2.039
0.94912338 -0.86052185 2.0340002
0.96051848 -0.86577517 2.046
0.9663201 -0.86595511 2.046
0.97260338 -0.86656195 2.0470002
0.97220683 -0.8612445 2.0340002
0.97462779 -0.85846937 2.0270002
0.9828195 -0.86077994 2.0320001
0.99347913 -0.86521363 2.0420001
0.99196833 -0.85905802 2.0270002
1.0007156 -0.86180508 2.033
1.006534 -0.86201328 2.033
1.0113637 -0.86137718 2.0310001
1.0141861 -0.85904771 2.0250001
1.023026 -0.86181295 2.0310001
1.031908 -0.86458355 2.0370002
1.0362474 -0.86353862 2.0340002
1.0364786 -0.85909998 2.023
1.045929 -0.86230922 2.0300002
1.055946 -0.86594915 2.0380001
1.0488241 -0.85556966 2.013
1.0578074 -0.8583681 2.0190001
1.0731567 -0.86627579 2.0370002
1.0843816 -0.87078935 2.0470002
1.0924779 -0.87275702 2.0510001
1.1038206 -0.87728447 2.0610001
1.1044614 -0.87330359 2.0510001
1.0936834 -0.86038029 2.02
1.0979757 -0.8593834 2.0170002
1.1110172 -0.86521 2.0300002
1.130198 -0.87573528 2.0540001
1.1229777 -0.86580056 2.0300002
1.1228564 -0.8614105 2.0190001
1.1210033 -0.85574198 2.0050001
1.1241368 -0.853917 2
1.130077 -0.85423148 2
1.1632934 -0.8750608 2.0480001
1.1733966 -0.87838614 2.0550001
1.1715001 -0.87273997 2.0410001
1.1764556 -0.87222809 2.039
1.1669124 -0.86102295 2.0120001
1.174709 -0.86265785 2.0150001
1.1790204 -0.86173016 2.0120001
1.1874497 -0.86380672 2.016
1.2030209 -0.87103492 2.0320001
1.1871642 -0.85554653 1.9950001
1.1938244 -0.85635382 1.9960001
1.2329669 -0.88034642 2.0510001
1.2349986 -0.87774265 2.0440001
1.243075 -0.87943923 2.0470002
1.2463021 -0.87770522 2.0420001
1.2341787 -0.86522543 2.0120001
1.2571313 -0.87339425 2.029
1.2453599 -0.8613447 2
1.256579 -0.86523288 2.0080001
1.2653489 -0.86740762 2.0120001
1.2728964 -0.868729 2.0140002
1.2677706 -0.86142743 1.9960001
1.2791454 -0.86535245 2.0040002
1.3214536 -0.88238907 2.0400002
1.3194726 -0.8772766 2.0270002
1.3226613 -0.87563038 2.0220001
1.3291247 -0.87615693 2.0220001
1.3448558 -0.88276237 2.036
1.3361388 -0.87333202 2.013
1.3352985 -0.86910772 2.0020001
1.3496314 -0.87110078 2.0040002
1.3649613 -0.87733197 2.0170002
1.3776786 -0.88183928 2.026
1.36998 -0.87329525 2.0050001
1.358047 -0.86213344 1.978
1.3666563 -0.86405021 1.9810001
1.3725367 -0.86423326 1.9800001
1.363565 -0.84821862 1.9390001
1.4061353 -0.87119401 1.9900001
1.4228075 -0.87800443 2.0040002
1.3875253 -0.85282743 1.9450001
-1.3786609 -0.83294529 1.8770001
-1.3444815 -0.81865329 1.848
-1.3293959 -0.8126483 1.8360001
-1.3375667 -0.82411927 1.8650001
-1.3497105 -0.8382408 1.9000001
-1.3171127 -0.82127434 1.863
-1.3115277 -0.82108277 1.8640001
-1.3255681 -0.83322561 1.8930001
-1.2830894 -0.81309468 1.8500001
-1.2859267 -0.82158566 1.8720001
-1.3125643 -0.84206265 1.9200001
-1.2790387 -0.82395226 1.8800001
-1.2715257 -0.82251817 1.8780001
-1.2667422 -0.82284516 1.8800001
-1.2545907 -0.81836867 1.8710001
-1.2638718 -0.82789385 1.8940001
-1.2511098 -0.82299942 1.8840001
-1.2410756 -0.81986529 1.8780001
-1.2232076 -0.81150734 1.8600001
-1.2152903 -0.80970764 1.8570001
-1.2210867 -0.81706882 1.8750001
-1.2274348 -0.82486409 1.8940001
-1.2311006 -0.83091676 1.909
-1.239823 -0.84044999 1.932
-1.2177663 -0.82911074 1.9070001
-1.2136761 -0.82995808 1.9100001
-1.2000995 -0.82429707 1.8980001
-1.1721436 -0.80866545 1.863
-1.1876196 -0.82299197 1.8970001
-1.1910636 -0.82907146 1.9120001
-1.1776946 -0.82344979 1.9000001
-1.1742829 -0.82477111 1.904
-1.1733162 -0.82782942 1.9120001
-1.1894112 -0.84300822 1.9480001
-1.1797841 -0.84001172 1.9420002
-1.1593282 -0.82924205 1.9180001
-1.1624873 -0.83534217 1.9330001
-1.1751422 -0.84835416 1.9640001
-1.1441652 -0.82984203 1.9220001
-1.1495848 -0.83767784 1.9410001
-1.1301544 -0.8273946 1.9180001
-1.133738 -0.83394265 1.9340001
-1.1214916 -0.82885325 1.9230001
-1.1081631 -0.82291186 1.9100001
-1.1214753 -0.83679152 1.9430001
-1.1185243 -0.8386116 1.9480001
-1.0984191 -0.82752568 1.9230001
-1.0887024 -0.82419658 1.9160001
-1.0858216 -0.82603508 1.9210001
-1.0834841 -0.82830715 1.927
-1.0777661 -0.82800448 1.927
-1.0765092 -0.8311432 1.9350001
-1.0818563 -0.83943725 1.955
-1.0738851 -0.83742869 1.9510001
-1.0604727 -0.83113557 1.937
-1.0564098 -0.83214331 1.9400001
-1.049631 -0.83101118 1.9380001
-1.0455669 -0.83202761 1.9410001
-1.0409586 -0.83261931 1.9430001
-1.0379465 -0.83450037 1.9480001
-1.0248458 -0.82824779 1.9340001
-1.0155245 -0.82500017 1.927
-1.0083489 -0.82347089 1.9240001
-1.0178772 -0.83563852 1.9530001
-1.0153251 -0.83796507 1.9590001
-1.0070771 -0.8355906 1.9540001
-0.99425358 -0.82937378 1.9400001
-0.98610532 -0.82701099 1.9350001
-0.97850043 -0.82508075 1.9310001
-0.97646838 -0.82785416 1.9380001
-0.9703958 -0.82721359 1.937
-0.9693172 -0.83084661 1.9460001
-0.96720362 -0.83362782 1.9530001
-0.9581638 -0.83043706 1.9460001
-0.9467234 -0.82511824 1.9340001
-0.94168478 -0.82535052 1.9350001
-0.94003385 -0.82857126 1.9430001
-0.94122946 -0.8343522 1.9570001
-0.94282979 -0.84056014 1.9720001
-0.9410243 -0.84378576 1.9800001
-0.92831379 -0.83721393 1.9650002
-0.9147554 -0.82979631 1.9480001
-0.91250122 -0.8326062 1.955
-0.91114122 -0.83626986 1.9640001
-0.90927494 -0.83950955 1.9720001
-0.90416104 -0.83977169 1.973
-0.89631438 -0.83748353 1.9680001
-0.8903119 -0.83690131 1.9670001
-0.88207126 -0.83419526 1.9610001
-0.87565756 -0.83319449 1.9590001
-0.86881596 -0.83177173 1.9560001
-0.86464441 -0.83290344 1.9590001
-0.86089945 -0.83446264 1.9630001
-0.85713679 -0.83602422 1.9670001
-0.85465521 -0.83886284 1.9740001
-0.84740728 -0.83702964 1.9700001
-0.8401863 -0.83519959 1.9660001
-0.83086926 -0.83124918 1.9570001
-0.82666796 -0.83239877 1.96
-0.82161611 -0.83270133 1.9610001
-0.81697905 -0.83343101 1.9630001
-0.81109464 -0.83288944 1.9620001
-0.80768347 -0.83489722 1.9670001
-0.80547178 -0.83818012 1.9750001
-0.79916888 -0.83722103 1.973
-0.79046708 -0.83371902 1.9650002
-0.78580838 -0.83446252 1.9670001
-0.78272891 -0.83690482 1.973
-0.77686208 -0.83637995 1.9720001
-0.77022171 -0.83500922 1.9690001
-0.7636013 -0.83364105 1.9660001
-0.75854343 -0.83397126 1.9670001
-0.75386596 -0.83472759 1.9690001
-0.75070083 -0.83718127 1.9750001
-0.74712825 -0.83921278 1.9800001
-0.74165821 -0.83912694 1.9800001
-0.73619103 -0.83904308 1.9800001
-0.7288813 -0.8368426 1.9750001
-0.72306728 -0.83633924 1.9740001
-0.71798849 -0.83668518 1.9750001
-0.71434987 -0.83872741 1.9800001
-0.70782202 -0.83738256 1.9770001
-0.70131332 -0.8360399 1.9740001
-0.69623351 -0.836393 1.9750001
-0.69150048 -0.83717149 1.9770001
-0.68467659 -0.83541095 1.973
-0.68028688 -0.83661628 1.9760001
-0.67519981 -0.83697623 1.9770001
-0.67112577 -0.83860785 1.9810001
-0.6650157 -0.83770114 1.9790001
-0.65991843 -0.83806592 1.9800001
-0.65283436 -0.8358928 1.9750001
-0.64643544 -0.8345679 1.9720001
-0.64102989 -0.83451426 1.9720001
-0.63723785 -0.83657789 1.9770001
-0.63022429 -0.8344115 1.9720001
-0.62545782 -0.83520848 1.9740001
-0.61973977 -0.83473754 1.973
-0.61620843 -0.83722949 1.9790001
-0.60986817 -0.83591521 1.9760001
-0.60476947 -0.83629453 1.9770001
-0.59754461 -0.83371413 1.9710001
-0.59155577 -0.83282715 1.9690001
-0.58736545 -0.83447915 1.973
-0.58403963 -0.83740115 1.9800001
-0.57892334 -0.8377865 1.9810001
-0.57293463 -0.83690447 1.9790001
-0.56581086 -0.83433211 1.973
-0.56127745 -0.83556688 1.9760001
-0.55532229 -0.83468848 1.9740001
-0.55077213 -0.8359254 1.9770001
-0.54317218 -0.83251226 1.9690001
-0.53834844 -0.83332849 1.9710001
-0.53243315 -0.83245456 1.9690001
-0.52813584 -0.83411831 1.973
-0.52222788 -0.83324635 1.9710001
-0.51711863 -0.83364379 1.9720001
-0.51174515 -0.83361924 1.9720001
-0.50739974 -0.83528656 1.9760001
-0.50252527 -0.83610934 1.978
-0.49814343 -0.83777827 1.9820001
-0.49224895 -0.83691192 1.9800001
-0.48685789 -0.83689183 1.9800001
-0.48073801 -0.83560455 1.9770001
-0.47511607 -0.83516341 1.9760001
-0.46973801 -0.83514571 1.9760001
-0.4641256 -0.83470625 1.9750001
-0.46037742 -0.83764839 1.9820001
-0.45521447 -0.83805561 1.983
-0.45004669 -0.83846343 1.9840001
-0.44285691 -0.83506852 1.9760001
-0.43748236 -0.83505523 1.9760001
-0.43320182 -0.83715552 1.9810001
-0.42911044 -0.839679 1.9870001
-0.42413393 -0.84051263 1.9890001
-0.41767338 -0.83838886 1.9840001
-0.41082487 -0.83542061 1.9770001
-0.4050402 -0.83456582 1.9750001
-0.39967149 -0.83455664 1.9750001
-0.39490214 -0.83581573 1.978
-0.3889353 -0.83454013 1.9750001
-0.38376188 -0.83495504 1.9760001
-0.37896636 -0.83621556 1.9790001
-0.37453234 -0.83832169 1.9840001
-0.36914119 -0.83831549 1.9840001
-0.36338362 -0.83746469 1.9820001
-0.35727593 -0.8357693 1.978
-0.35172391 -0.83534187 1.9770001
-0.34670314 -0.83618248 1.9790001
-0.34149927 -0.83660084 1.9800001
-0.33595061 -0.83617455 1.9790001
-0.33057463 -0.83617121 1.9790001
-0.32552746 -0.83701319 1.9810001
-0.32095444 -0.83912301 1.9860001
-0.31587771 -0.83996564 1.988
-0.31063411 -0.84038609 1.9890001
-0.30492479 -0.83953917 1.9870001
-0.29937723 -0.83911508 1.9860001
-0.29353911 -0.83784622 1.983
-0.28800803 -0.83742267 1.9820001
-0.28276771 -0.83784431 1.983
-0.27724227 -0.83742124 1.9820001
-0.27185947 -0.83742088 1.9820001
-0.26674569 -0.83826566 1.9840001
-0.26109412 -0.83742064 1.9820001
-0.25584054 -0.83784336 1.983
-0.24982375 -0.83573109 1.978
-0.24457569 -0.8361541 1.9790001
-0.23920138 -0.83615482 1.9790001
-0.23477232 -0.83953571 1.9870001
-0.22937632 -0.83953661 1.9870001
-0.22386761 -0.83911508 1.9860001
-0.21858437 -0.83953875 1.9870001
-0.2132957 -0.83996242 1.988
-0.20831534 -0.84165382 1.9920001
-0.20270211 -0.84081018 1.9900001
-0.19729801 -0.84081173 1.9900001
-0.19160461 -0.83954573 1.9870001
-0.18611492 -0.83912468 1.9860001
-0.18081269 -0.83954889 1.9870001
-0.17559327 -0.84039557 1.9890001
-0.17061968 -0.84250993 1.9940001
-0.16528749 -0.84293413 1.9950001
-0.16035055 -0.84547102 2.0010002
-0.15452936 -0.84336013 1.9960001
-0.14933296 -0.84462947 1.9990001
-0.14383228 -0.84420872 1.9980001
-0.13826773 -0.84336531 1.9960001
-0.13251434 -0.84125441 1.9910001
-0.12717114 -0.84167862 1.9920001
-0.12170026 -0.84125775 1.9910001
-0.11635157 -0.8416819 1.9920001
-0.11077465 -0.84041589 1.9890001
-0.1054789 -0.84126252 1.9910001
-0.099870682 -0.83957392 1.9870001
-0.094521895 -0.83999783 1.988
-0.088943504 -0.83830905 1.9840001
-0.083555274 -0.83831036 1.9840001
-0.078088224 -0.8374666 1.9820001
-0.072998844 -0.84084809 1.9900001
-0.067865983 -0.84422946 1.9980001
-0.062502146 -0.84507561 2
-0.056984745 -0.84380895 1.9970001
-0.051561087 -0.84380984 1.9970001
-0.046206724 -0.84507829 2
-0.040836047 -0.84634662 2.003
-0.035343032 -0.8450796 2
-0.029896218 -0.84465766 1.9990001
-0.0244793 -0.84508055 2
-0.019047422 -0.84508097 2
-0.013622344 -0.84550387 2.0010002
-0.0081713712 -0.8438139 1.9970001
-0.0027476256 -0.84381402 1.9970001
0.0026734408 -0.84296894 1.9950001
0.0080958111 -0.8433913 1.9960001
0.013503294 -0.84254605 1.9940001
0.018928373 -0.84296834 1.9950001
0.024371078 -0.843813 1.9970001
0.029809723 -0.84423518 1.9980001
0.035218515 -0.84381205 1.9970001
0.040662576 -0.84423399 1.9980001
0.046042845 -0.84338814 1.9960001
0.051541153 -0.84465492 1.9990001
0.056884747 -0.84338641 1.9960001
0.062461752 -0.8454982 2.0010002
0.067794442 -0.84422946 1.9980001
0.07322076 -0.84422839 1.9980001
0.078686424 -0.84464973 1.9990001
0.084241666 -0.84591615 2.0020001
0.089857943 -0.84760481 2.006
0.09516336 -0.84633583 2.003
0.10045248 -0.84506679 2
0.10572527 -0.84379774 1.9970001
0.11120436 -0.84421867 1.9980001
0.11686398 -0.84590715 2.0020001
0.12248421 -0.84717321 2.0050001
0.1279293 -0.84717149 2.0050001
0.13350742 -0.84801495 2.0070002
0.13888864 -0.84759057 2.006
0.14448027 -0.84843403 2.0080001
0.14963473 -0.84674221 2.0040002
0.15492222 -0.84589529 2.0020001
0.16027889 -0.84547102 2.0010002
0.16571297 -0.8454693 2.0010002
0.1714036 -0.84673518 2.0040002
0.17658101 -0.8454659 2.0010002
0.18210597 -0.84588671 2.0020001
0.18744902 -0.84546262 2.0010002
0.19317219 -0.84672856 2.0040002
0.19861428 -0.84672701 2.0040002
0.20426005 -0.84757054 2.006
0.20949854 -0.84672421 2.0040002
0.21494062 -0.84672278 2.0040002
0.22049272 -0.84714407 2.0050001
0.22616297 -0.84798807 2.0070002
0.23195942 -0.84925437 2.01
0.23777224 -0.85052103 2.013
0.24299723 -0.8496753 2.0110002
0.24821135 -0.84882963 2.0090001
0.25316212 -0.847139 2.0050001
0.25847813 -0.84671623 2.0040002
0.26378876 -0.84629339 2.003
0.26909408 -0.84587091 2.0020001
0.27494249 -0.8471387 2.0050001
0.280108 -0.84629399 2.003
0.28611818 -0.84798473 2.0070002
0.29084262 -0.84587294 2.0020001
0.29657596 -0.84671909 2.0040002
0.30171743 -0.84587532 2.0020001
0.30838239 -0.84925699 2.01
0.31477863 -0.85179394 2.016
0.32057223 -0.85264122 2.0180001
0.32605365 -0.85264361 2.0180001
0.33137098 -0.85222399 2.0170002
0.33684993 -0.85222697 2.0170002
0.34097141 -0.84885025 2.0090001
0.34539443 -0.8463189 2.003
0.35083601 -0.84632301 2.003
0.35698926 -0.84801775 2.0070002
0.36262274 -0.84844518 2.0080001
0.36844516 -0.84929556 2.01
0.37372071 -0.84887886 2.0090001
0.37955728 -0.84973019 2.0110002
0.38425627 -0.84804672 2.0070002
0.39048725 -0.84974414 2.0110002
0.39595264 -0.84975177 2.0110002
0.40161806 -0.85018253 2.0120001
0.40647995 -0.84892362 2.0090001
0.41194099 -0.84893286 2.0090001
0.41698697 -0.84809756 2.0070002
0.42286441 -0.84895307 2.0090001
0.42875308 -0.84980923 2.0110002
0.43486911 -0.85108864 2.0140002
0.43969005 -0.84983313 2.0110002
0.44493783 -0.84942329 2.01
0.45040479 -0.84943688 2.01
0.4567796 -0.85114169 2.0140002
0.46179953 -0.85031134 2.0120001
0.46750584 -0.85074967 2.013
0.47298336 -0.85076618 2.013
0.47964993 -0.85289663 2.0180001
0.48466143 -0.8520692 2.016
0.48941967 -0.85082 2.013
0.49416229 -0.84957165 2.01
0.50013226 -0.85043746 2.0120001
0.50561118 -0.85045874 2.0120001
0.51134503 -0.85090363 2.013
0.51657158 -0.85050404 2.0120001
0.5228315 -0.85179627 2.0150001
0.52858418 -0.85224396 2.016
0.53434342 -0.85269272 2.0170002
0.54010898 -0.8531425 2.0180001
0.54588091 -0.85359323 2.0190001
0.55165941 -0.85404503 2.02
0.55689263 -0.85365236 2.0190001
0.56295741 -0.85452932 2.0210001
0.56847161 -0.85456169 2.0210001
0.57370281 -0.85417217 2.02
0.57864308 -0.85336107 2.0180001
0.58502114 -0.85466546 2.0210001
0.59258562 -0.8576628 2.0280001
0.59842002 -0.8581242 2.029
0.60307062 -0.85689491 2.026
0.60770631 -0.85566688 2.023
0.61353958 -0.85613197 2.0240002
0.61968559 -0.85702145 2.026
0.62553567 -0.85748935 2.0270002
0.63014734 -0.85626644 2.0240002
0.63600045 -0.85673714 2.0250001
0.64312804 -0.85890168 2.0300002
0.65028477 -0.86106795 2.0350001
0.65457004 -0.85942757 2.0310001
0.65948534 -0.85863489 2.029
0.66406369 -0.85742033 2.026
0.66862756 -0.85620725 2.023
0.6725105 -0.85414916 2.0180001
0.67905605 -0.8554787 2.0210001
0.6862976 -0.85765666 2.026
0.69288576 -0.85898995 2.029
0.69845992 -0.85905486 2.029
0.70368934 -0.85869825 2.0280001
0.70786643 -0.85707301 2.0240002
0.71378624 -0.8575666 2.0250001
0.71971399 -0.85806215 2.026
0.72421783 -0.85686535 2.023
0.72906858 -0.85609394 2.0210001
0.73463786 -0.85617155 2.0210001
0.73984343 -0.85582733 2.02
0.74504632 -0.85548508 2.0190001
0.7495029 -0.85429728 2.016
0.75544399 -0.85480642 2.0170002
0.76252556 -0.85658932 2.0210001
0.76849192 -0.85710293 2.0220001
0.77331853 -0.85634702 2.02
0.78006512 -0.85771298 2.023
0.78683168 -0.85908157 2.026
0.7947914 -0.86172473 2.0320001
0.79845494 -0.85970551 2.0270002
0.80368096 -0.85938483 2.026
0.81170118 -0.86203605 2.0320001
0.81533384 -0.8600232 2.0270002
0.82420748 -0.86352855 2.0350001
0.82905155 -0.86279339 2.033
0.83881533 -0.867154 2.043
0.84119821 -0.86387706 2.0350001
0.84312445 -0.86017722 2.026
0.84668046 -0.85817754 2.0210001
0.85400838 -0.86000216 2.0250001
0.86263651 -0.86310416 2.0320001
0.87045372 -0.86536026 2.0370002
0.8774429 -0.86676997 2.0400002
0.88228905 -0.86605817 2.0380001
0.88712883 -0.86534905 2.036
0.89415479 -0.866768 2.039
0.89590663 -0.86308843 2.0300002
0.89850104 -0.8602609 2.023
0.90418994 -0.86041266 2.023
0.90763539 -0.85844064 2.0180001
0.91015261 -0.85561985 2.0110002
0.92083323 -0.86046118 2.0220001
0.92791557 -0.86190242 2.0250001
0.93686473 -0.8650502 2.0320001
0.94168437 -0.86437041 2.0300002
0.9427647 -0.86028647 2.02
0.95036823 -0.86216784 2.0240002
0.95941776 -0.86533165 2.0310001
0.96376103 -0.86423868 2.0280001
0.96570319 -0.86101747 2.02
0.97097278 -0.8607828 2.0190001
0.98446745 -0.86780113 2.0350001
0.98832768 -0.86629552 2.0310001
0.98825604 -0.86137974 2.0190001
0.9900924 -0.85817248 2.0110002
1.0003084 -0.86222357 2.02
1.0021162 -0.85902256 2.0120001
1.006891 -0.85838592 2.01
1.0202268 -0.86501497 2.0250001
1.0296031 -0.86823314 2.0320001
1.0242499 -0.85906261 2.01
1.0254401 -0.85544896 2.0010002
1.0389546 -0.86210042 2.016
1.0406445 -0.85892171 2.0080001
1.0370851 -0.85146666 1.9900001
1.0543919 -0.86113143 2.0120001
1.0718353 -0.8708064 2.0340002
1.0793483 -0.87235469 2.0370002
1.0847569 -0.87219495 2.036
1.0907047 -0.87246829 2.036
1.0988169 -0.87446123 2.0400002
1.0961308 -0.8678841 2.0240002
1.0900939 -0.85873383 2.0020001
1.0992659 -0.8615967 2.0080001
1.1035303 -0.86060327 2.0050001
1.1033604 -0.85617906 1.9940001
1.1114807 -0.85819972 1.9980001
1.1162796 -0.85764873 1.9960001
1.1092709 -0.84807581 1.973
1.1332228 -0.86215103 2.0050001
1.1437402 -0.86591816 2.013
1.1605998 -0.87442726 2.0320001
1.1661021 -0.87433851 2.0310001
1.1617988 -0.86693382 2.013
1.1701635 -0.86900753 2.0170002
1.1692342 -0.86419219 2.0050001
1.1676593 -0.85894752 1.9920001
1.1848731 -0.86750841 2.0110002
1.183264 -0.86227244 1.9980001
1.1970663 -0.8682636 2.0110002
1.1906193 -0.85957986 1.9900001
1.2111189 -0.87034106 2.0140002
1.2154605 -0.86944503 2.0110002
1.1924623 -0.84908992 1.9630001
1.2076483 -0.8559854 1.978
1.2168053 -0.85856432 1.983
1.239576 -0.8706823 2.01
1.245175 -0.87068397 2.0090001
1.2420632 -0.86462206 1.9940001
1.2213461 -0.84641343 1.9510001
1.2481915 -0.8611815 1.9840001
1.2657758 -0.86945784 2.0020001
1.2733239 -0.87079793 2.0040002
1.2630231 -0.85997331 1.978
1.2795272 -0.86741453 1.9940001
1.286478 -0.86834288 1.9950001
1.2979898 -0.87232846 2.003
1.3095719 -0.87632674 2.0110002
1.3087904 -0.87205297 2
1.3296595 -0.88217992 2.0220001
1.3249184 -0.8753016 2.0050001
1.3254008 -0.87191778 1.9960001
1.3245116 -0.86766398 1.9850001
1.3557564 -0.884408 2.0220001
1.3589661 -0.88280016 2.0170002
1.379091 -0.89214838 2.0370002
1.3687564 -0.88179624 2.0120001
1.3753707 -0.88240337 2.0120001
1.3614023 -0.86985451 1.9820001
1.3589927 -0.86476344 1.9690001
1.3655368 -0.86538815 1.9690001
1.3741963 -0.86734283 1.9720001
1.3681966 -0.86006689 1.9540001
1.3677304 -0.85631377 1.9440001
1.4039834 -0.87548804 1.9860001
1.4327339 -0.88984954 2.0170002
1.4246087 -0.88128495 1.9960001
-1.3286934 -0.80791628 1.8080001
-1.3194414 -0.80541831 1.8040001
-1.3641118 -0.83594501 1.8740001
-1.4133955 -0.86955005 1.9510001
-1.3267617 -0.8227163 1.8490001
-1.3077327 -0.81739074 1.84
-1.3135108 -0.82429284 1.8570001
-1.3241266 -0.83429861 1.881
-1.2545426 -0.80011457 1.8080001
-1.3072208 -0.83712113 1.8930001
-1.3215594 -0.84977883 1.9230001
-1.261174 -0.81429428 1.8440001
-1.2585057 -0.81593597 1.8490001
-1.2869846 -0.83786929 1.9000001
-1.2693129 -0.82981467 1.8830001
-1.2583978 -0.82960659 1.8850001
-1.2449892 -0.82423723 1.8740001
-1.224399 -0.81404757 1.8520001
-1.2144961 -0.81090689 1.8460001
-1.2157806 -0.81524092 1.8570001
-1.2267858 -0.82615858 1.8830001
-1.2298635 -0.83180875 1.8970001
-1.2268189 -0.83698028 1.9110001
-1.2150357 -0.83256888 1.9020001
-1.2077761 -0.83123207 1.9000001
-1.1809373 -0.81634903 1.8670001
-1.1725744 -0.81416237 1.863
-1.1717677 -0.81722629 1.8710001
-1.179028 -0.82596892 1.8920001
-1.1818329 -0.83165479 1.9060001
-1.1895019 -0.84083039 1.9280001
-1.2007333 -0.85261881 1.9560001
-1.1672195 -0.83259714 1.9110001
-1.1522287 -0.82566547 1.8960001
-1.160321 -0.83528686 1.9190001
-1.1610672 -0.83968449 1.9300001
-1.1491909 -0.83495212 1.9200001
-1.1427487 -0.83414197 1.9190001
-1.1155897 -0.81813151 1.8830001
-1.1393526 -0.83949018 1.9330001
-1.1270552 -0.83435559 1.9220001
-1.1311716 -0.84138095 1.9390001
-1.1102421 -0.82975495 1.9130001
-1.1189264 -0.84025609 1.9380001
-1.0953085 -0.82648408 1.9070001
-1.087315 -0.82442534 1.9030001
-1.0799249 -0.82280654 1.9000001
-1.086699 -0.83201629 1.9220001
-1.0860415 -0.83559895 1.9310001
-1.0657605 -0.82404399 1.9050001
-1.0645651 -0.82720447 1.9130001
-1.0815991 -0.84463209 1.9540001
-1.0692205 -0.83915073 1.9420002
-1.0547324 -0.83195013 1.9260001
-1.0512422 -0.83339536 1.9300001
-1.0423208 -0.83052778 1.9240001
-1.0339828 -0.82809818 1.9190001
-1.0283629 -0.82783157 1.9190001
-1.0312793 -0.83446956 1.9350001
-1.0139699 -0.82472545 1.9130001
-1.0015417 -0.8188706 1.9000001
-0.99810946 -0.82034796 1.904
-1.0030035 -0.82872045 1.9240001
-1.0093447 -0.83838385 1.9470001
-1.0062817 -0.84029734 1.9520001
-0.99345815 -0.83403695 1.9380001
-0.98327208 -0.82993531 1.9290001
-0.97922778 -0.8310014 1.932
-0.97517383 -0.83207083 1.9350001
-0.96209055 -0.82540536 1.9200001
-0.96305078 -0.83078128 1.9330001
-0.96196222 -0.83443946 1.9420002
-0.95590419 -0.83380383 1.9410001
-0.94741076 -0.83102477 1.9350001
-0.9413923 -0.83039761 1.9340001
-0.93635398 -0.83063275 1.9350001
-0.93275976 -0.83215886 1.9390001
-0.93249637 -0.83669126 1.95
-0.92837393 -0.83779323 1.9530001
-0.92282301 -0.83761156 1.9530001
-0.90929383 -0.83014381 1.9360001
-0.90753776 -0.83339995 1.9440001
-0.90713441 -0.83794391 1.955
-0.90851927 -0.84420347 1.9700001
-0.90249121 -0.84360856 1.9690001
-0.8960188 -0.84258866 1.9670001
-0.88639432 -0.83857435 1.9580001
-0.87862533 -0.83627737 1.9530001
-0.86820734 -0.83141547 1.9420002
-0.86585295 -0.83426321 1.9490001
-0.86346418 -0.83711278 1.9560001
-0.85665452 -0.83568525 1.9530001
-0.85422474 -0.8385393 1.96
-0.85435861 -0.84396183 1.973
-0.84840119 -0.8433978 1.9720001
-0.83646983 -0.83684993 1.9570001
-0.82887328 -0.83458239 1.9520001
-0.82173061 -0.83274561 1.9480001
-0.81419551 -0.83048457 1.9430001
-0.81210369 -0.83378255 1.9510001
-0.80583668 -0.83280903 1.9490001
-0.80492347 -0.83739239 1.96
-0.79783458 -0.83556926 1.9560001
-0.79198712 -0.83503038 1.955
-0.78695345 -0.83534819 1.9560001
-0.78191799 -0.83566839 1.9570001
-0.77926105 -0.83855247 1.9640001
-0.77262884 -0.83716905 1.9610001
-0.76679897 -0.83664191 1.96
-0.75981283 -0.83483678 1.9560001
-0.75362343 -0.83388776 1.9540001
-0.74859691 -0.83422118 1.955
-0.74584883 -0.83711666 1.9620001
-0.74193299 -0.83873379 1.9660001
-0.73724872 -0.83949947 1.9680001
-0.7306971 -0.83813441 1.9650002
-0.72342658 -0.83591855 1.96
-0.71765196 -0.83541101 1.9590001
-0.71370327 -0.83703738 1.9630001
-0.70829195 -0.83696008 1.9630001
-0.70145094 -0.83517927 1.9590001
-0.69641107 -0.83553207 1.96
-0.69313085 -0.83801782 1.9660001
-0.68842083 -0.83880013 1.9680001
-0.68023157 -0.8353222 1.96
-0.67415446 -0.83440357 1.9580001
-0.66843212 -0.83391285 1.9570001
-0.66610551 -0.83768469 1.9660001
-0.65902662 -0.83549285 1.9610001
-0.65564388 -0.83798927 1.9670001
-0.64859378 -0.83580095 1.9620001
-0.64321238 -0.83574432 1.9620001
-0.63620722 -0.83355957 1.9570001
-0.63213253 -0.83520973 1.9610001
-0.62643969 -0.83473182 1.96
-0.62265539 -0.83681059 1.9650002
-0.61601806 -0.83505785 1.9610001
-0.61220694 -0.83713925 1.9660001
-0.60651815 -0.836667 1.9650002
-0.60083634 -0.83619606 1.9640001
-0.59455514 -0.83487511 1.9610001
-0.58799142 -0.83312988 1.9570001
-0.58353496 -0.83436596 1.96
-0.57817864 -0.83432621 1.96
-0.57399267 -0.83599025 1.9640001
-0.56920719 -0.83680403 1.9660001
-0.56412512 -0.83719337 1.9670001
-0.55903894 -0.83758384 1.9680001
-0.55197912 -0.83499628 1.9620001
-0.54662484 -0.8349635 1.9620001
-0.54044408 -0.83365518 1.9590001
-0.53537333 -0.83405 1.96
-0.52921659 -0.832744 1.9570001
-0.5236125 -0.83228987 1.9560001
-0.51827991 -0.8322624 1.9560001
-0.51399726 -0.83393782 1.96
-0.5094341 -0.83518863 1.9630001
-0.50434196 -0.83558941 1.9640001
-0.49822897 -0.83428937 1.9610001
-0.49288723 -0.83426648 1.9610001
-0.48854077 -0.8359462 1.9650002
-0.48368147 -0.83677584 1.9670001
-0.47832569 -0.83675557 1.9670001
-0.47224924 -0.83545983 1.9640001
-0.46642759 -0.83459038 1.9620001
-0.46061751 -0.83372176 1.96
-0.45737407 -0.83753288 1.9690001
-0.45247534 -0.83836716 1.9710001
-0.44779316 -0.83962744 1.9740001
-0.44085398 -0.83663499 1.9670001
-0.4352819 -0.83619541 1.9660001
-0.42971578 -0.83575648 1.9650002
-0.42566729 -0.83829528 1.9710001
-0.42116019 -0.83998418 1.9750001
-0.41642126 -0.84124821 1.978
-0.41083527 -0.84081173 1.9770001
-0.40463981 -0.83909988 1.973
-0.39765713 -0.83568764 1.9650002
-0.39251512 -0.83610338 1.9660001
-0.38697419 -0.83566922 1.9650002
-0.38221589 -0.83693665 1.9680001
-0.37744164 -0.83820456 1.9710001
-0.3728402 -0.83989823 1.9750001
-0.36784515 -0.84074169 1.9770001
-0.36155608 -0.83860886 1.9720001
-0.35601705 -0.8381775 1.9710001
-0.35048363 -0.83774656 1.9700001
-0.34443033 -0.83604026 1.9660001
-0.33926138 -0.83646071 1.9670001
-0.33391747 -0.83645624 1.9670001
-0.32907486 -0.83772779 1.9700001
-0.32388747 -0.83814925 1.9710001
-0.31869483 -0.83857107 1.9720001
-0.31365579 -0.83941835 1.9740001
-0.30876231 -0.84069133 1.9770001
-0.30308533 -0.83983839 1.9750001
-0.29757005 -0.83941084 1.9740001
-0.2913202 -0.83685738 1.9680001
-0.28655618 -0.83855671 1.9720001
-0.28105763 -0.83813006 1.9710001
-0.27584428 -0.83855402 1.9720001
-0.27048841 -0.83855301 1.9720001
-0.26567048 -0.84025317 1.9760001
-0.25977701 -0.8385517 1.9720001
-0.25429237 -0.83812606 1.9710001
-0.2481817 -0.83557445 1.9650002
-0.24333955 -0.83727533 1.9690001
-0.23775049 -0.83642501 1.9670001
-0.23288128 -0.83812618 1.9710001
-0.22741316 -0.83770138 1.9700001
-0.22217594 -0.83812708 1.9710001
-0.21726334 -0.83982861 1.9750001
-0.21222176 -0.84110504 1.978
-0.20716389 -0.84238154 1.9810001
-0.2016823 -0.84195733 1.9800001
-0.19630529 -0.84195834 1.9800001
-0.19073541 -0.84110898 1.978
-0.18527015 -0.84068495 1.9770001
-0.18017426 -0.8419618 1.9800001
-0.17470896 -0.84153789 1.9790001
-0.16950579 -0.84238964 1.9810001
-0.16412605 -0.84239101 1.9810001
-0.15906683 -0.84409332 1.9850001
-0.15383101 -0.84494513 1.9870001
-0.14873374 -0.8466475 1.9910001
-0.1432548 -0.84622377 1.9900001
-0.13750419 -0.84409899 1.9850001
-0.1317807 -0.84197414 1.9800001
-0.12646738 -0.84240079 1.9810001
-0.12120975 -0.8432526 1.983
-0.11594124 -0.84410453 1.9850001
-0.11038336 -0.84283012 1.9820001
-0.1050007 -0.84283143 1.9820001
-0.099467233 -0.84155697 1.9790001
-0.094140224 -0.84198344 1.9800001
-0.088673271 -0.84113407 1.978
-0.083259284 -0.84070998 1.9770001
-0.077929497 -0.84113628 1.978
-0.072777666 -0.84368873 1.9840001
-0.06745737 -0.84454024 1.9860001
-0.062126193 -0.84539163 1.988
-0.056584392 -0.84326619 1.983
-0.051224649 -0.84369224 1.9840001
-0.045836356 -0.84369296 1.9840001
-0.040570375 -0.84624505 1.9900001
-0.035112754 -0.84496987 1.9870001
-0.029671416 -0.84369469 1.9840001
-0.024270842 -0.84326982 1.983
-0.018885218 -0.84327012 1.983
-0.013526818 -0.8449713 1.9870001
-0.0081098638 -0.84284526 1.9820001
-0.0027269435 -0.84284538 1.9820001
0.0026546372 -0.8424201 1.9810001
0.008042953 -0.84327048 1.983
0.013415042 -0.8424198 1.9810001
0.018795241 -0.84241962 1.9810001
0.024212044 -0.8436951 1.9840001
0.029689895 -0.84624618 1.9900001
0.035094514 -0.84624565 1.9900001
0.040478773 -0.84581977 1.9890001
0.045788389 -0.84411824 1.9850001
0.051230963 -0.84496802 1.9870001
0.056513395 -0.84326625 1.983
0.061898939 -0.84326535 1.983
0.067250542 -0.8428393 1.9820001
0.072779924 -0.84453923 1.9860001
0.078331016 -0.84623927 1.9900001
0.083735511 -0.8462382 1.9900001
0.089184768 -0.84666228 1.9910001
0.094591931 -0.84666109 1.9910001
0.099948861 -0.84623468 1.9900001
0.10530032 -0.84580809 1.9890001
0.11064634 -0.84538156 1.988
0.11627878 -0.84708124 1.9920001
0.12156637 -0.84622931 1.9900001
0.1270345 -0.84665316 1.9910001
0.13250804 -0.84707701 1.9920001
0.13805622 -0.84792614 1.9940001
0.14347136 -0.84792471 1.9940001
0.14858779 -0.84622234 1.9900001
0.15391465 -0.84579557 1.9890001
0.15923604 -0.84536904 1.988
0.16463481 -0.84536767 1.988
0.17054676 -0.84791768 1.9940001
0.17587353 -0.84749115 1.9930001
0.1811949 -0.84706461 1.9920001
0.18613611 -0.84493726 1.9870001
0.1920141 -0.84706223 1.9920001
0.1976219 -0.84791154 1.9940001
0.20293513 -0.84748536 1.9930001
0.2079293 -0.84578353 1.9890001
0.21375978 -0.84748358 1.9930001
0.219612 -0.84918362 1.9970001
0.22537328 -0.85045868 2
0.2308047 -0.8504582 2
0.23623611 -0.85045779 2
0.24166758 -0.85045749 2
0.246852 -0.84960699 1.9980001
0.25227812 -0.84960699 1.9980001
0.25718835 -0.84790635 1.9940001
0.26234031 -0.84705621 1.9920001
0.26761591 -0.84663159 1.9910001
0.27370891 -0.84875852 1.9960001
0.27926975 -0.84918475 1.9970001
0.28469357 -0.84918594 1.9970001
0.28982696 -0.84833705 1.9950001
0.29509756 -0.84791344 1.9940001
0.30021212 -0.84706503 1.9920001
0.30654338 -0.84961867 1.9980001
0.31290737 -0.85217267 2.0040002
0.3189863 -0.85387641 2.0080001
0.32395616 -0.85260391 2.0050001
0.3289099 -0.85133159 2.0020001
0.33434847 -0.85133541 2.0020001
0.33910844 -0.8496387 1.9980001
0.34436414 -0.84921795 1.9970001
0.3497898 -0.8492229 1.9970001
0.35574931 -0.85050404 2
0.36082244 -0.84965932 1.9980001
0.3662515 -0.84966546 1.9980001
0.37149483 -0.8492468 1.9970001
0.37786552 -0.85138023 2.0020001
0.38273197 -0.85011196 1.9990001
0.38855335 -0.85097057 2.0010002
0.39418897 -0.85140443 2.0020001
0.39983043 -0.85183865 2.003
0.40507308 -0.85142308 2.0020001
0.40990049 -0.85015738 1.9990001
0.41533539 -0.85016811 1.9990001
0.42098117 -0.85060477 2
0.4270592 -0.85189259 2.003
0.43207449 -0.85105461 2.0010002
0.43729797 -0.85064244 2
0.44229519 -0.84980571 1.9980001
0.44840249 -0.85109633 2.0010002
0.45429984 -0.85196209 2.003
0.45929059 -0.85112751 2.0010002
0.46450323 -0.8507188 2
0.46994609 -0.85073626 2
0.47634041 -0.85245609 2.0040002
0.48179549 -0.85247517 2.0040002
0.48627865 -0.8507933 2
0.49123263 -0.84996331 1.9980001
0.49617633 -0.84913379 1.9960001
0.5016126 -0.8491562 1.9960001
0.50628769 -0.84790319 1.9930001
0.51325792 -0.85047996 1.9990001
0.51948339 -0.85178149 2.0020001
0.52546388 -0.85265857 2.0040002
0.53145629 -0.85353673 2.006
0.53719294 -0.85399044 2.0070002
0.54212475 -0.85316855 2.0050001
0.54841232 -0.85447532 2.0080001
0.55361402 -0.85408121 2.0070002
0.5604828 -0.85624146 2.0120001
0.56456703 -0.8541472 2.0070002
0.57032925 -0.8546074 2.0080001
0.57523793 -0.85379207 2.006
0.58274233 -0.85680842 2.013
0.58911753 -0.8581239 2.016
0.59462541 -0.85816354 2.016
0.59864646 -0.856076 2.0110002
0.60444397 -0.85654384 2.0120001
0.61085474 -0.8578645 2.0150001
0.61697763 -0.85876089 2.0170002
0.62342161 -0.86008447 2.02
0.62708145 -0.85757744 2.0140002
0.63070995 -0.85507143 2.0080001
0.63842618 -0.85810274 2.0150001
0.64522392 -0.85985827 2.0190001
0.65107828 -0.86033762 2.02
0.65498984 -0.85826319 2.0150001
0.6595313 -0.85704184 2.0120001
0.66339725 -0.85496992 2.0070002
0.66857076 -0.85460335 2.006
0.67407697 -0.85466444 2.006
0.68060172 -0.85600555 2.0090001
0.68782806 -0.85820079 2.0140002
0.69405121 -0.85911942 2.016
0.69751149 -0.85663056 2.01
0.70234036 -0.85584807 2.0080001
0.70645541 -0.85421467 2.0040002
0.71090621 -0.85300905 2.0010002
0.715343 -0.85180515 1.9980001
0.72048736 -0.85145557 1.9970001
0.72744656 -0.85323989 2.0010002
0.73443043 -0.85502648 2.0050001
0.74033201 -0.85553592 2.006
0.74512655 -0.85476804 2.0040002
0.75066203 -0.85485506 2.0040002
0.75808716 -0.85707724 2.0090001
0.76478279 -0.85844862 2.0120001
0.76958382 -0.85768908 2.01
0.77514815 -0.85778487 2.01
0.78110433 -0.85830992 2.0110002
0.78824264 -0.86011773 2.0150001
0.79383093 -0.86022073 2.0150001
0.79902601 -0.8598991 2.0140002
0.80501801 -0.86043376 2.0150001
0.81101924 -0.86097091 2.016
0.81783998 -0.86236489 2.0190001
0.82508904 -0.86418885 2.023
0.83441752 -0.86815214 2.0320001
0.83925247 -0.86741883 2.0300002
0.84116691 -0.86369622 2.0210001
0.84303522 -0.85997516 2.0120001
0.84823203 -0.85967565 2.0110002
0.85555053 -0.86151648 2.0150001
0.86204106 -0.86250532 2.0170002
0.8698377 -0.86478031 2.0220001
0.87550217 -0.86491996 2.0220001
0.8798641 -0.86377925 2.0190001
0.88202089 -0.86050141 2.0110002
0.88634485 -0.85936528 2.0080001
0.89332229 -0.86080015 2.0110002
0.89808637 -0.86009771 2.0090001
0.89969552 -0.85640067 2
0.9080494 -0.85912967 2.006
0.91598707 -0.86143446 2.0110002
0.9262501 -0.86588544 2.0210001
0.92781359 -0.86219943 2.0120001
0.9297961 -0.85894394 2.0040002
0.93500644 -0.85869104 2.003
0.94397449 -0.86187196 2.01
0.95251596 -0.86462879 2.016
0.95872122 -0.86524534 2.0170002
0.9611131 -0.86243302 2.01
0.96683884 -0.86262727 2.01
0.97547436 -0.86540079 2.016
0.98171741 -0.86603248 2.0170002
0.98356676 -0.86280286 2.0090001
0.99571878 -0.86859655 2.0220001
0.99903691 -0.86666268 2.0170002
1.0053227 -0.8673104 2.0180001
1.0116217 -0.86796236 2.0190001
1.0159186 -0.86689866 2.016
1.0298353 -0.8740108 2.0320001
1.0362066 -0.87467718 2.033
1.019526 -0.85598212 1.9890001
1.0366204 -0.86569244 2.0110002
1.0357072 -0.86034131 1.9980001
1.0305572 -0.85154563 1.9770001
1.0525512 -0.86515349 2.0080001
1.0641924 -0.87015426 2.0190001
1.0753767 -0.8747313 2.029
1.0679766 -0.86422229 2.0040002
1.072764 -0.86363304 2.0020001
1.0840145 -0.86822629 2.0120001
1.0920833 -0.87023735 2.016
1.0909265 -0.86491376 2.003
1.0858701 -0.8565678 1.983
1.0878633 -0.85383838 1.9760001
1.090379 -0.85154432 1.9700001
1.1034421 -0.8574692 1.983
1.1160333 -0.86297107 1.9950001
1.124208 -0.86502022 1.9990001
1.1239374 -0.86058289 1.988
1.132706 -0.86307639 1.9930001
1.1512287 -0.87294197 2.0150001
1.137733 -0.85855073 1.9810001
1.1684995 -0.87753832 2.0240002
1.1618153 -0.86835366 2.0020001
1.1631781 -0.865242 1.9940001
1.1604009 -0.85909492 1.9790001
1.1728702 -0.86423999 1.9900001
1.2002295 -0.88025755 2.026
1.1998351 -0.87586564 2.0150001
1.1951981 -0.86843193 1.9970001
1.1892623 -0.86012763 1.9770001
1.202566 -0.86575055 1.9890001
1.1922586 -0.85440159 1.9620001
1.1952364 -0.8526333 1.9570001
1.2239794 -0.86917734 1.9940001
1.2356923 -0.87353331 2.003
1.249337 -0.8792094 2.0150001
1.2238153 -0.85739529 1.9640001
1.2098912 -0.84386438 1.932
1.2410978 -0.86179119 1.9720001
1.2498015 -0.86400324 1.9760001
1.2502844 -0.86053771 1.9670001
1.2449791 -0.85313606 1.9490001
1.2492069 -0.85230321 1.9460001
1.2760124 -0.86681479 1.978
1.3003219 -0.87572986 1.9960001
1.3243756 -0.88810939 2.023
1.2946775 -0.86449182 1.9680001
1.3148882 -0.87425882 1.9890001
1.3186473 -0.87305081 1.9850001
1.3117207 -0.86480808 1.9650002
1.3093811 -0.8596459 1.9520001
1.356858 -0.88709623 2.013
1.3397332 -0.87225813 1.978
1.3383737 -0.86418617 1.9570001
1.3386554 -0.86081833 1.9480001
1.3540926 -0.86718374 1.9610001
1.3543761 -0.86383212 1.9520001
1.3567157 -0.86181378 1.9460001
1.3632433 -0.86246145 1.9460001
1.3747239 -0.86622471 1.9530001
1.385825 -0.86624753 1.95
-1.342652 -0.8216179 1.8260001
-1.2952701 -0.79571325 1.7700001
-1.4047147 -0.86972874 1.9380001
-1.3915188 -0.86495715 1.9290001
-1.3032384 -0.81652457 1.8240001
-1.2948765 -0.81452411 1.8210001
-1.3396364 -0.84605712 1.8930001
-1.2850395 -0.83157343 1.8690001
-1.2570286 -0.82018328 1.8460001
-1.2772883 -0.84036165 1.8940001
-1.2811747 -0.84645277 1.909
-1.2395693 -0.82241285 1.8560001
