# .PCD v0.7 - Point Cloud Data file format
VERSION 0.7
FIELDS x y z
SIZE 4 4 4
TYPE F F F
COUNT 1 1 1
WIDTH 1486
HEIGHT 1
VIEWPOINT 0 0 0 1 0 0 0
POINTS 1486
DATA ascii
0.74352974 -0.89404464 1.7040001
0.74445879 -0.88954926 1.6950001
0.75374132 -0.89502913 1.705
0.7528531 -0.88843882 1.692
0.7639873 -0.89602983 1.7060001
0.76754588 -0.89469731 1.7030001
0.77018607 -0.89231718 1.6980001
0.78056365 -0.89887571 1.71
0.79055738 -0.90491629 1.7210001
0.79877216 -0.9088605 1.728
0.7995916 -0.90439337 1.7190001
0.79849339 -0.89782262 1.7060001
0.79968125 -0.89388448 1.6980001
0.8027249 -0.89205444 1.6940001
0.81385744 -0.8991825 1.7070001
0.8212353 -0.9021042 1.7120001
0.82382357 -0.89976114 1.7070001
0.82347667 -0.89425737 1.6960001
0.82160747 -0.88717228 1.682
0.82556063 -0.88641846 1.6800001
0.82802677 -0.88408542 1.6750001
0.83842796 -0.89020354 1.6860001
0.83989769 -0.8868233 1.6790001
0.85592669 -0.89876842 1.7010001
0.85994667 -0.89804149 1.6990001
0.86141771 -0.8946752 1.692
0.86746484 -0.89607233 1.6940001
0.86374646 -0.88742125 1.677
0.86563426 -0.884592 1.6710001
0.87218451 -0.88653189 1.674
0.88138175 -0.89112771 1.682
0.88167745 -0.88672251 1.6730001
0.89411891 -0.8945145 1.687
0.91198444 -0.90762335 1.7110001
0.92089218 -0.91172731 1.7180001
0.91907161 -0.90522224 1.705
0.91447258 -0.8960616 1.687
0.92449307 -0.90124649 1.6960001
0.92361599 -0.89580917 1.6850001
0.93480921 -0.90207452 1.6960001
0.93555033 -0.8982414 1.6880001
0.93235272 -0.89068425 1.6730001
0.93916148 -0.89271367 1.6760001
0.93980259 -0.88888967 1.6680001
0.93983978 -0.88453496 1.659
0.95350403 -0.89298517 1.674
0.95868301 -0.89344496 1.674
0.96157163 -0.89177603 1.6700001
0.95923811 -0.88530368 1.6570001
0.97371519 -0.89433396 1.6730001
0.96958095 -0.88626546 1.6570001
0.97183114 -0.8840819 1.6520001
0.98352647 -0.89047062 1.6630001
0.9982779 -0.89955282 1.6790001
0.99581069 -0.8931067 1.6660001
0.97344649 -0.86895972 1.6200001
0.9834246 -0.87377411 1.628
1.017759 -0.90008378 1.6760001
1.0182297 -0.89634079 1.6680001
1.0125288 -0.88722414 1.6500001
1.0252343 -0.89424574 1.6620001
1.0343131 -0.8980543 1.6680001
1.0415773 -0.90026009 1.6710001
1.0457454 -0.89978176 1.669
1.063774 -0.91118026 1.6890001
1.0066134 -0.85836107 1.59
1.0360045 -0.87948841 1.628
1.0400771 -0.87903005 1.626
1.0531564 -0.88615429 1.6380001
1.0372518 -0.86893535 1.605
1.0606756 -0.87320465 1.608
1.109192 -0.90921825 1.6730001
1.0575458 -0.8631705 1.5870001
1.0488728 -0.85244089 1.5660001
1.0703717 -0.8662194 1.59
1.0805542 -0.87076223 1.5970001
1.0895121 -0.87061822 1.5940001
1.1482353 -0.90991282 1.6630001
1.1138942 -0.86825812 1.5810001
1.1117384 -0.86304778 1.5700001
1.1493856 -0.88865364 1.6150001
1.1752238 -0.9049592 1.6430001
1.1890717 -0.91193783 1.654
1.1451541 -0.86777955 1.5690001
-1.2823393 -0.96527004 1.7290001
-1.2163051 -0.94145757 1.6990001
-1.1952189 -0.92888916 1.6780001
-1.1447716 -0.90435773 1.6400001
-1.2021943 -0.95365351 1.7310001
-1.1742666 -0.93927801 1.7080001
-1.2004578 -0.98070133 1.7910001
-1.1403425 -0.93558037 1.71
-1.1312251 -0.93209183 1.705
-1.1307452 -0.93572086 1.7130001
-1.1177554 -0.92898434 1.702
-1.0998619 -0.92211342 1.692
-1.0901883 -0.9302879 1.7120001
-1.1235439 -0.97173589 1.7920001
-1.1195906 -0.97270834 1.7950001
-1.1063296 -0.9655658 1.7830001
-1.0396522 -0.92421389 1.7110001
-1.0472443 -0.94410545 1.751
-1.0213865 -0.92954272 1.7260001
-1.0071267 -0.92093992 1.7110001
-1.0140526 -0.93172055 1.7320001
-1.0095969 -0.93661052 1.743
-1.030095 -0.96027678 1.7880001
-1.0130814 -0.94903451 1.7680001
-1.0032729 -0.94912815 1.7700001
-1.0051439 -0.95561719 1.7830001
-0.95961624 -0.92147869 1.7210001
-0.96599144 -0.93227339 1.7420001
-0.97941935 -0.95001841 1.7760001
-0.9463985 -0.93214756 1.7450001
-0.9335621 -0.92425621 1.7310001
-0.93691009 -0.93238926 1.7470001
-0.92950648 -0.92985159 1.743
-0.93115199 -0.9363873 1.756
-0.92851162 -0.93865919 1.761
-0.92218155 -0.93720543 1.7590001
-0.91795844 -0.93788898 1.761
-0.89455682 -0.91887969 1.7260001
-0.87137353 -0.89989108 1.6910001
-0.88580745 -0.91975552 1.7290001
-0.89187491 -0.93110192 1.751
-0.8704192 -0.91871548 1.7290001
-0.8733148 -0.92687821 1.7450001
-0.8666715 -0.92495161 1.7420001
-0.86252713 -0.92568547 1.7440001
-0.85985404 -0.92801541 1.7490001
-0.8515296 -0.92950398 1.7530001
-0.84108478 -0.92336386 1.7420001
-0.83887029 -0.92624044 1.748
-0.83758223 -0.93017936 1.756
-0.81444788 -0.90976125 1.7180001
-0.82593644 -0.92800516 1.7530001
-0.83488721 -0.94359612 1.7830001
-0.80830455 -0.91897368 1.7370001
-0.80743015 -0.92345977 1.7460001
-0.79364294 -0.91314268 1.7270001
-0.80052179 -0.92662245 1.7530001
-0.79908901 -0.93058664 1.761
-0.79175496 -0.92768484 1.756
-0.78400809 -0.92426074 1.7500001
-0.76057136 -0.91349518 1.7310001
-0.75342542 -0.91062146 1.7260001
-0.76322627 -0.92832386 1.7600001
-0.77499205 -0.94865769 1.7990001
-0.74032372 -0.91204822 1.7300001
-0.73538524 -0.91182774 1.7300001
-0.75494111 -0.94217366 1.7880001
-0.74313766 -0.93352413 1.7720001
-0.73184699 -0.92540896 1.7570001
-0.7371943 -0.93836409 1.7820001
-0.72597051 -0.93025833 1.7670001
-0.72136497 -0.93058109 1.7680001
-0.70257723 -0.91248894 1.7340001
-0.70008063 -0.91545248 1.7400001
-0.69236076 -0.91157985 1.733
-0.68111473 -0.9029789 1.7170001
-0.67390209 -0.89964241 1.7110001
-0.68041402 -0.91470963 1.7400001
-0.68210781 -0.9234668 1.7570001
-0.67831421 -0.92486674 1.7600001
-0.67029929 -0.92048973 1.7520001
-0.66802996 -0.92399669 1.7590001
-0.66760999 -0.93013132 1.771
-0.65852094 -0.92418927 1.7600001
-0.65469623 -0.92560214 1.7630001
-0.65048993 -0.92649245 1.7650001
-0.64408141 -0.92423624 1.761
-0.6373359 -0.9214586 1.756
-0.6342234 -0.9239313 1.761
-0.63251567 -0.92850399 1.7700001
-0.62615168 -0.92625946 1.766
-0.6219241 -0.92716473 1.7680001
-0.6180374 -0.9285965 1.771
-0.60859817 -0.9216423 1.7580001
-0.60232496 -0.91941005 1.7540001
-0.59437406 -0.9145605 1.7450001
-0.59694892 -0.92595953 1.7670001
-0.59672391 -0.93316603 1.7810001
-0.59077531 -0.931467 1.7780001
-0.58286923 -0.92662758 1.7690001
-0.57762957 -0.92598188 1.7680001
-0.57596141 -0.93109894 1.7780001
-0.56717473 -0.9246974 1.766
-0.56068599 -0.92196441 1.761
-0.55864614 -0.92656302 1.7700001
-0.55655879 -0.9311626 1.779
-0.55349386 -0.93419307 1.7850001
-0.54671031 -0.9309454 1.779
-0.53965765 -0.92717713 1.7720001
-0.52992988 -0.91870308 1.756
-0.52687126 -0.92174166 1.7620001
-0.51637518 -0.91170466 1.743
-0.51097554 -0.91056287 1.7410001
-0.51111299 -0.91935945 1.7580001
-0.50683892 -0.9203124 1.7600001
-0.49970359 -0.91603845 1.7520001
-0.49798113 -0.92170042 1.7630001
-0.49396211 -0.92318088 1.766
-0.48771286 -0.92048115 1.761
-0.48478335 -0.92405558 1.7680001
-0.47747394 -0.91926926 1.7590001
-0.47236526 -0.91866589 1.7580001
-0.46885946 -0.92119938 1.7630001
-0.46690696 -0.92686886 1.774
-0.45786354 -0.91843337 1.7580001
-0.44968268 -0.91156781 1.7450001
-0.44641885 -0.91462958 1.751
-0.44034934 -0.91194695 1.7460001
-0.43455812 -0.90978843 1.7420001
-0.42977712 -0.9097206 1.7420001
-0.42475355 -0.90913206 1.7410001
-0.42407891 -0.9179436 1.7580001
-0.42021203 -0.91996783 1.7620001
-0.41608873 -0.92147106 1.7650001
-0.40892121 -0.91618884 1.7550001
-0.40250051 -0.91247457 1.748
-0.397257 -0.91137207 1.7460001
-0.39337426 -0.91340268 1.7500001
-0.38725027 -0.91021496 1.7440001
-0.38116029 -0.90702897 1.738
-0.37878594 -0.91271597 1.7490001
-0.37549707 -0.91631627 1.756
-0.37027103 -0.9152211 1.7540001
-0.36338997 -0.90995312 1.7440001
-0.36026594 -0.914078 1.7520001
-0.35689622 -0.91768199 1.7590001
-0.3516877 -0.91659147 1.7570001
-0.34530643 -0.91237229 1.7490001
-0.33877501 -0.90763295 1.7400001
-0.33402139 -0.9075895 1.7400001
-0.33059314 -0.91119796 1.7470001
-0.32712746 -0.9148072 1.7540001
-0.3219704 -0.91372329 1.7520001
-0.31682509 -0.91264057 1.7500001
-0.31115642 -0.90999436 1.7450001
-0.30463782 -0.90474182 1.7350001
-0.30024883 -0.90574813 1.7370001
-0.29840147 -0.91457659 1.7540001
-0.2954576 -0.9202767 1.7650001
-0.29031366 -0.91919941 1.7630001
-0.28566712 -0.91968715 1.7640001
-0.28037882 -0.91809016 1.761
-0.27604643 -0.91962218 1.7640001
-0.27092946 -0.91854841 1.7620001
-0.26627707 -0.91903937 1.7630001
-0.26206467 -0.92109495 1.7670001
-0.25622955 -0.91741717 1.7600001
-0.25157598 -0.9179104 1.761
-0.24579641 -0.91423458 1.7540001
-0.24087991 -0.91368711 1.7530001
-0.23583461 -0.91261882 1.751
-0.2317244 -0.91519982 1.756
-0.22719967 -0.91621792 1.7580001
-0.22203191 -0.91463083 1.7550001
-0.21712847 -0.91408664 1.7540001
-0.21223089 -0.9135434 1.7530001
-0.20804918 -0.91612738 1.7580001
-0.20372497 -0.91819072 1.7620001
-0.19926648 -0.91973376 1.7650001
-0.19335966 -0.91450292 1.7550001
-0.18707784 -0.90718883 1.7410001
-0.18181513 -0.90456516 1.7360001
-0.17729403 -0.90558964 1.738
-0.17375523 -0.911825 1.7500001
-0.17015135 -0.91806072 1.7620001
-0.16516866 -0.9170025 1.7600001
-0.16019706 -0.91594476 1.7580001
-0.15523665 -0.91488761 1.756
-0.1510585 -0.91852009 1.7630001
-0.14493434 -0.91017014 1.7470001
-0.14090355 -0.91484559 1.756
-0.13597125 -0.91379058 1.7540001
-0.13082564 -0.91117328 1.7490001
-0.12527496 -0.90543091 1.738
-0.12103278 -0.90906626 1.7450001
-0.11675272 -0.91270208 1.7520001
-0.11185946 -0.91164964 1.7500001
-0.10673246 -0.90851408 1.7440001
-0.10210607 -0.90954649 1.7460001
-0.098026574 -0.91578859 1.7580001
-0.093775854 -0.92098933 1.7680001
-0.088867031 -0.91993922 1.766
-0.083683595 -0.91576427 1.7580001
-0.078588687 -0.91211057 1.751
-0.073574111 -0.90897846 1.7450001
-0.068986706 -0.91105574 1.7490001
-0.064267479 -0.91157079 1.7500001
-0.059644911 -0.91364902 1.7540001
-0.05481296 -0.91260213 1.7520001
-0.049820565 -0.90843052 1.7440001
-0.044975128 -0.90634274 1.7400001
-0.040220886 -0.9058181 1.7390001
-0.035512969 -0.90633583 1.7400001
-0.030852731 -0.90841639 1.7440001
-0.026080953 -0.90737218 1.7420001
-0.021381348 -0.90893281 1.7450001
-0.016608253 -0.90736842 1.7420001
-0.011871942 -0.90736729 1.7420001
-0.0071069743 -0.90372032 1.7350001
-0.0023883432 -0.90319914 1.7340001
0.0023235052 -0.90215725 1.7320001
0.0070366622 -0.90267855 1.733
0.011707813 -0.89955413 1.7270001
0.016460329 -0.90268052 1.733
0.021184411 -0.90320313 1.7340001
0.025943829 -0.90476775 1.7370001
0.03054305 -0.90112412 1.7300001
0.035389476 -0.90477306 1.7370001
0.040204741 -0.90685987 1.7410001
0.045067627 -0.90946805 1.7460001
0.049758043 -0.90843046 1.7440001
0.054375153 -0.90635139 1.7400001
0.058902651 -0.90323102 1.7340001
0.063727789 -0.90479904 1.7370001
0.068687566 -0.90793031 1.743
0.073427297 -0.90793651 1.743
0.078211986 -0.90846419 1.7440001
0.083097346 -0.91003412 1.7470001
0.087747723 -0.90899992 1.7450001
0.09275838 -0.91161263 1.7500001
0.097350568 -0.91005832 1.7470001
0.10169281 -0.90642083 1.7400001
0.10611945 -0.90382558 1.7350001
0.1110301 -0.90539819 1.738
0.11582403 -0.90592951 1.7390001
0.12138616 -0.91219187 1.751
0.12614919 -0.91220325 1.751
0.13053863 -0.90961027 1.7460001
0.1345911 -0.90493381 1.7370001
0.13891563 -0.90234178 1.7320001
0.14329611 -0.90027118 1.728
0.14842585 -0.90288985 1.733
0.15340628 -0.90446728 1.7360001
0.15849441 -0.90656626 1.7400001
0.1641674 -0.91179204 1.7500001
0.16892977 -0.91180813 1.7500001
0.1743872 -0.91547209 1.7570001
0.17804748 -0.90975785 1.7460001
0.18060118 -0.89883322 1.725
0.18443732 -0.89468288 1.7170001
0.19032288 -0.90043342 1.728
0.19559149 -0.90305835 1.733
0.20077211 -0.90516287 1.7370001
0.2055016 -0.90518367 1.7370001
0.21035247 -0.90572608 1.738
0.21545669 -0.90731156 1.7410001
0.21994525 -0.90629202 1.7390001
0.2240357 -0.90370947 1.7340001
0.22862704 -0.90321225 1.733
0.23375198 -0.90480053 1.7360001
0.2382068 -0.9037835 1.7340001
0.2429314 -0.90380961 1.7340001
0.24879907 -0.90800649 1.7420001
0.25383756 -0.90907669 1.7440001
0.25814602 -0.90754122 1.7410001
0.26258966 -0.90652794 1.7390001
0.26671553 -0.90447265 1.7350001
0.2714459 -0.90450329 1.7350001
0.27538094 -0.90192807 1.7300001
0.28139409 -0.90613121 1.738
0.28531125 -0.90355748 1.733
0.29003853 -0.90359133 1.733
0.29391602 -0.90101916 1.728
0.29932225 -0.90314049 1.7320001
0.30457544 -0.90474147 1.7350001
0.30966741 -0.90582192 1.7370001
0.31404698 -0.90481746 1.7350001
0.31841633 -0.90381366 1.733
0.3242673 -0.90698338 1.7390001
0.32655704 -0.9002443 1.7260001
0.33184743 -0.90185118 1.7290001
0.33637643 -0.90137285 1.728
0.34070328 -0.90037364 1.7260001
0.34461993 -0.89833218 1.7220001
0.34851554 -0.89629143 1.7180001
0.35280135 -0.89529496 1.7160001
0.35728553 -0.89482135 1.715
0.36218733 -0.89539236 1.7160001
0.36880589 -0.90013903 1.725
0.37417552 -0.90175641 1.728
0.37978193 -0.90389687 1.7320001
0.38452324 -0.90395141 1.7320001
0.3910636 -0.90818238 1.7400001
0.39469159 -0.90562963 1.7350001
0.39806306 -0.90255558 1.7290001
0.40233475 -0.90157086 1.7270001
0.40683234 -0.9011091 1.7260001
0.40965652 -0.89699388 1.7180001
0.41509125 -0.89862311 1.7210001
0.41834828 -0.89555418 1.715
0.42182037 -0.89300835 1.71
0.42651355 -0.89307505 1.71
0.43146023 -0.89366525 1.7110001
0.43794328 -0.89739108 1.7180001
0.44060126 -0.89328325 1.71
0.44894591 -0.90066969 1.7240001
0.45473734 -0.90283394 1.728
0.46161601 -0.90709031 1.7360001
0.46665972 -0.907691 1.7370001
0.47116765 -0.9072482 1.7360001
0.47430107 -0.90419352 1.7300001
0.47712612 -0.90061736 1.723
0.48103309 -0.89913303 1.72
0.48605511 -0.89974153 1.7210001
0.49193993 -0.90192026 1.725
0.49900055 -0.90619284 1.733
0.50407225 -0.90680724 1.7340001
0.50386924 -0.89800948 1.7170001
0.50653642 -0.89444226 1.71
0.51006407 -0.8924455 1.7060001
0.5171926 -0.89672822 1.7140001
0.52375841 -0.89996743 1.72
0.52790147 -0.89902288 1.7180001
0.53420603 -0.90174359 1.723
0.54116607 -0.90551364 1.7300001
0.54438019 -0.90300488 1.725
0.54502225 -0.89630914 1.7120001
0.54655808 -0.89118475 1.702
0.55127984 -0.89129782 1.702
0.5599243 -0.89769804 1.7140001
0.56501395 -0.89834005 1.715
0.56878281 -0.89688897 1.7120001
0.57186764 -0.89439172 1.7070001
0.57796758 -0.89661229 1.7110001
0.58409262 -0.8988356 1.715
0.59298974 -0.9052555 1.7270001
0.59745663 -0.90486425 1.7260001
0.60122317 -0.90342659 1.723
0.60743815 -0.90566194 1.7270001
0.60623342 -0.89688587 1.71
0.60815293 -0.89283079 1.702
0.61363208 -0.89402366 1.7040001
0.62057722 -0.89731824 1.71
0.62463373 -0.89641792 1.7080001
0.62905091 -0.89604479 1.7070001
0.63272339 -0.89462417 1.7040001
0.6356343 -0.89215559 1.6990001
0.64191318 -0.89441556 1.7030001
0.64745867 -0.89562851 1.705
0.65148914 -0.8947432 1.7030001
0.65512669 -0.89333481 1.7
0.65952778 -0.8929801 1.6990001
0.65610701 -0.88211417 1.6780001
0.66478038 -0.88754672 1.6880001
0.67311776 -0.89245838 1.697
0.67871392 -0.89369303 1.6990001
0.67909569 -0.88809162 1.6880001
0.68104005 -0.88459593 1.6810001
0.68662101 -0.8858391 1.6830001
0.69673675 -0.89287692 1.6960001
0.70610362 -0.89886802 1.7070001
0.70387596 -0.89011753 1.6900001
0.71413666 -0.89717084 1.7030001
0.71307725 -0.89000362 1.6890001
0.71874356 -0.89126927 1.6910001
0.72185904 -0.88937581 1.687
0.73012596 -0.89381301 1.6950001
0.74017835 -0.90036571 1.7070001
0.74026597 -0.89479083 1.6960001
0.74293202 -0.89238298 1.6910001
0.74513286 -0.88944983 1.6850001
0.74864018 -0.88810283 1.682
0.74765635 -0.88147742 1.669
0.74299675 -0.87062597 1.6480001
0.743213 -0.86558509 1.6380001
0.76940477 -0.89067471 1.6850001
0.78484625 -0.90309304 1.7080001
0.78516793 -0.89806914 1.6980001
0.79334831 -0.90204024 1.705
0.79408461 -0.89755046 1.6960001
0.79336202 -0.89147425 1.6840001
0.80347919 -0.89757788 1.6950001
0.8103289 -0.89998192 1.6990001
0.81720906 -0.90239173 1.7030001
0.81929207 -0.89950716 1.697
0.81406164 -0.88867182 1.6760001
0.81946588 -0.88950276 1.677
0.81849295 -0.88344121 1.6650001
0.8278423 -0.88852644 1.674
0.83128291 -0.88724852 1.6710001
0.84171975 -0.89341062 1.682
0.84669268 -0.89373738 1.682
0.84053439 -0.88237512 1.6600001
0.8571732 -0.89493817 1.6830001
0.86832196 -0.90166438 1.6950001
0.86924601 -0.89775771 1.687
0.87220442 -0.89598292 1.6830001
0.88244534 -0.90166813 1.6930001
0.88017404 -0.89457619 1.6790001
0.87308341 -0.88268667 1.6560001
0.87805957 -0.88305742 1.6560001
0.89371014 -0.89410353 1.6760001
0.91217273 -0.90783334 1.7010001
0.88495779 -0.87619615 1.641
0.88233638 -0.86910897 1.6270001
0.90908879 -0.89087981 1.6670001
0.91196615 -0.88915128 1.6630001
0.93137306 -0.90347469 1.6890001
0.94152373 -0.90872008 1.6980001
0.91828787 -0.88185102 1.6470001
0.92446381 -0.88335383 1.649
0.94028831 -0.88960057 1.659
0.9437061 -0.88844669 1.6560001
0.9568581 -0.89642346 1.6700001
0.95340371 -0.88884062 1.6550001
0.96840286 -0.89845192 1.6720001
0.97303975 -0.89840305 1.6710001
0.956608 -0.87899542 1.6340001
0.95114082 -0.86980003 1.6160001
0.97397691 -0.88645166 1.646
0.97738504 -0.8853476 1.6430001
0.98138654 -0.88478869 1.641
0.97877669 -0.87830234 1.628
0.99423087 -0.88801074 1.6450001
1.0128465 -0.9004395 1.6670001
1.0132946 -0.89667696 1.659
1.0094095 -0.88913202 1.6440001
1.0109991 -0.88645637 1.6380001
1.0144277 -0.88541019 1.6350001
1.0191008 -0.88545483 1.6340001
1.0425923 -0.90177596 1.6630001
1.0486448 -0.90293437 1.664
1.0167139 -0.87152314 1.605
1.0149777 -0.8661595 1.5940001
1.0573502 -0.89831758 1.6520001
1.0435096 -0.88264441 1.6220001
1.0391892 -0.8751263 1.6070001
1.0448623 -0.86469978 1.5830001
1.0767478 -0.88725454 1.623
1.0609142 -0.87046349 1.5910001
1.0616401 -0.8673445 1.5840001
1.0778338 -0.87683517 1.6
1.0921282 -0.88470703 1.613
1.1112987 -0.89644617 1.6330001
1.1292632 -0.90711784 1.651
1.1040667 -0.88317484 1.6060001
1.1324756 -0.90213311 1.6390001
1.1472516 -0.91011918 1.6520001
1.1049103 -0.87291503 1.5830001
1.1189305 -0.88036108 1.595
1.1168453 -0.87512648 1.5840001
1.1083305 -0.86491692 1.5640001
1.1253397 -0.87462789 1.58
1.1739892 -0.90875208 1.6400001
1.1583494 -0.89303744 1.6100001
1.1099807 -0.85231727 1.5350001
-1.231475 -0.93182117 1.659
-1.1273688 -0.86322218 1.5420001
-1.2118325 -0.94671667 1.7
-1.1389397 -0.89704907 1.6140001
-1.1893549 -0.94060385 1.6940001
-1.1682311 -0.93932796 1.6980001
-1.1471155 -0.94604975 1.7190001
-1.1446997 -0.95221329 1.733
-1.11454 -0.93114704 1.6960001
-1.1023034 -0.92493665 1.6860001
-1.1246238 -0.96468192 1.7650001
-1.1004364 -0.94815767 1.7360001
-1.1160517 -0.97029465 1.779
-1.1146281 -0.97345167 1.7860001
-1.1032439 -0.96789885 1.7770001
-1.0469354 -0.93122536 1.7130001
-1.0317361 -0.92626226 1.7060001
-1.0517823 -0.95765245 1.7670001
-1.0041174 -0.92298096 1.705
-1.0315628 -0.95275635 1.761
-1.0411919 -0.96628422 1.7870001
-1.0087062 -0.94524616 1.7500001
-1.0273414 -0.96741635 1.7920001
-1.0003563 -0.95130885 1.7640001
-0.96163327 -0.91902262 1.705
-0.9799403 -0.94118923 1.7470001
-0.96453005 -0.93103164 1.7290001
-0.96255738 -0.93380803 1.7350001
-0.97049087 -0.94627166 1.7590001
-0.97005957 -0.9506644 1.7680001
-0.9559443 -0.94162321 1.7520001
-0.90395653 -0.89499211 1.6660001
-0.90268058 -0.89834738 1.6730001
-0.89225155 -0.89258116 1.6630001
-0.92670822 -0.93189138 1.7370001
-0.93261254 -0.94275147 1.7580001
-0.92943347 -0.94449562 1.7620001
-0.91938353 -0.94424826 1.7630001
-0.90166587 -0.93101662 1.7390001
-0.86502749 -0.89800036 1.6780001
-0.87130201 -0.90941638 1.7
-0.89057755 -0.93972147 1.7580001
-0.87176776 -0.92494166 1.7310001
-0.87966168 -0.93848765 1.7570001
-0.87546557 -0.93921423 1.7590001
-0.86829764 -0.93674284 1.7550001
-0.86607981 -0.93961382 1.761
-0.84819108 -0.92541969 1.7350001
-0.83386451 -0.91497242 1.7160001
-0.8462224 -0.93385333 1.7520001
-0.86029744 -0.95485759 1.7920001
-0.83501965 -0.93217397 1.7500001
-0.82611859 -0.92761457 1.7420001
-0.82245612 -0.92891836 1.7450001
-0.82721478 -0.93980473 1.766
-0.81649667 -0.93313283 1.7540001
-0.77920043 -0.9012053 1.6950001
-0.78434438 -0.9126358 1.7170001
-0.79572231 -0.93150294 1.7530001
-0.7866022 -0.92645824 1.7440001
-0.77978116 -0.92407608 1.7400001
-0.78990948 -0.94187444 1.774
-0.76312965 -0.91561186 1.725
-0.74630684 -0.90104145 1.6980001
-0.74274427 -0.90239769 1.7010001
-0.77213782 -0.94406533 1.7800001
-0.76359421 -0.93958479 1.7720001
-0.73369896 -0.90860492 1.7140001
-0.72965294 -0.90944254 1.7160001
-0.73286861 -0.92542988 1.7470001
-0.73747653 -0.93739504 1.7700001
-0.72582006 -0.92870855 1.7540001
-0.72247899 -0.93061674 1.7580001
-0.70973313 -0.92035484 1.7390001
-0.70317912 -0.91803771 1.7350001
-0.70067698 -0.92101485 1.7410001
-0.6977458 -0.92346519 1.7460001
-0.68844205 -0.91745704 1.7350001
-0.68038684 -0.91304046 1.7270001
-0.68333316 -0.92342901 1.7470001
-0.68345261 -0.93011719 1.7600001
-0.6815753 -0.93416393 1.7680001
-0.66817623 -0.92236394 1.7460001
-0.66288269 -0.92166305 1.7450001
-0.65382779 -0.91568452 1.7340001
-0.6530723 -0.92132658 1.7450001
-0.64705843 -0.91957897 1.7420001
-0.6454888 -0.92416835 1.751
-0.63545805 -0.91662169 1.7370001
-0.63494825 -0.9227984 1.7490001
-0.63653606 -0.93214071 1.7670001
-0.63552457 -0.93779063 1.7780001
-0.62346107 -0.92709333 1.7580001
-0.61221629 -0.91745645 1.7400001
-0.60875452 -0.9194234 1.7440001
-0.60250342 -0.91717517 1.7400001
-0.59868205 -0.91861951 1.743
-0.59212136 -0.9158501 1.738
-0.59302557 -0.92467523 1.7550001
-0.5911569 -0.92928571 1.7640001
-0.5912351 -0.93705779 1.779
-0.58595973 -0.93640339 1.7780001
-0.58134627 -0.93680459 1.779
-0.56862986 -0.92404497 1.7550001
-0.55894035 -0.91602892 1.7400001
-0.55124736 -0.91117549 1.7310001
-0.55623418 -0.92737818 1.7620001
-0.55667078 -0.93621141 1.779
-0.55205333 -0.93662542 1.7800001
-0.55050653 -0.94230288 1.7910001
-0.54341823 -0.93851155 1.784
-0.53727651 -0.93630129 1.7800001
-0.53086007 -0.9335677 1.7750001
-0.52388084 -0.92978466 1.7680001
-0.51635522 -0.92495257 1.7590001
-0.50626445 -0.91539156 1.7410001
-0.50520384 -0.92213196 1.7540001
-0.50065029 -0.92256463 1.7550001
-0.49213797 -0.91564023 1.7420001
-0.49516922 -0.93026745 1.7700001
-0.49084598 -0.93123007 1.7720001
-0.49117574 -0.94112724 1.7910001
-0.48190045 -0.93263441 1.7750001
-0.46814641 -0.91521329 1.7420001
-0.46548116 -0.9193356 1.7500001
-0.46172059 -0.92135769 1.7540001
-0.45689771 -0.92127991 1.7540001
-0.45156085 -0.92015326 1.7520001
-0.44394168 -0.91430205 1.7410001
-0.43840241 -0.91265416 1.738
-0.43288109 -0.911008 1.7350001
-0.42910486 -0.91303873 1.7390001
-0.42726022 -0.91927069 1.751
-0.42752242 -0.93022764 1.7720001
-0.42170778 -0.92806154 1.7680001
-0.41403002 -0.92169785 1.756
-0.40525419 -0.91271234 1.7390001
-0.40025762 -0.91212636 1.738
-0.396633 -0.91469026 1.743
-0.39118367 -0.91305727 1.7400001
-0.38664019 -0.91352463 1.7410001
-0.38165373 -0.91294372 1.7400001
-0.37862316 -0.91708589 1.748
-0.37490833 -0.91965508 1.7530001
-0.36821139 -0.91488087 1.7440001
-0.36260664 -0.91273111 1.7400001
-0.358053 -0.91320527 1.7410001
-0.3551183 -0.91787678 1.7500001
-0.34933269 -0.91520607 1.7450001
-0.34298289 -0.91096342 1.7370001
-0.33550936 -0.90357572 1.723
-0.33252907 -0.90825081 1.7320001
-0.32893258 -0.91135347 1.738
-0.32642332 -0.91760296 1.7500001
-0.32293031 -0.92123115 1.7570001
-0.31704605 -0.91804415 1.751
-0.30941188 -0.90961576 1.7350001
-0.30274388 -0.90381026 1.7240001
-0.29890266 -0.90639383 1.7290001
-0.29486462 -0.90845382 1.733
-0.29247969 -0.91575658 1.7470001
-0.28787801 -0.91624528 1.748
-0.28375742 -0.91830742 1.7520001
-0.27866021 -0.91722548 1.7500001
-0.27451351 -0.91928899 1.7540001
-0.27034566 -0.9213534 1.7580001
-0.26555225 -0.92132199 1.7580001
-0.26031449 -0.91971934 1.7550001
-0.25480241 -0.91706944 1.7500001
-0.25017536 -0.91756463 1.751
-0.2454032 -0.91753662 1.751
-0.23966953 -0.91384125 1.7440001
-0.23383985 -0.90962303 1.7360001
-0.23069367 -0.91588497 1.748
-0.2250268 -0.91219229 1.7410001
-0.22066379 -0.9137398 1.7440001
-0.21578963 -0.91319227 1.743
-0.21164778 -0.91578895 1.748
-0.20641389 -0.91367102 1.7440001
-0.20293666 -0.91941208 1.7550001
-0.19838369 -0.92043871 1.7570001
-0.1926081 -0.91570348 1.748
-0.18666698 -0.90992147 1.7370001
-0.18151926 -0.90780711 1.733
-0.17649564 -0.90621728 1.7300001
-0.17158794 -0.9051519 1.728
-0.16785038 -0.91037285 1.738
-0.16387093 -0.91454655 1.7460001
-0.15921026 -0.9150542 1.7470001
-0.15392555 -0.91189593 1.7410001
-0.14910221 -0.91135722 1.7400001
-0.1437867 -0.90767634 1.733
-0.13963304 -0.91132879 1.7400001
-0.13551901 -0.91550535 1.748
-0.13046399 -0.91339761 1.7440001
-0.12442172 -0.90395808 1.7260001
-0.12000366 -0.90604138 1.7300001
-0.11543071 -0.90707755 1.7320001
-0.11110275 -0.91020906 1.738
-0.10606907 -0.9075802 1.733
-0.10147215 -0.90861779 1.7350001
-0.097199097 -0.91279811 1.743
-0.092829615 -0.91645491 1.7500001
-0.088019602 -0.91592288 1.7490001
-0.083262749 -0.91591483 1.7490001
-0.078640692 -0.9174785 1.7520001
-0.073833756 -0.91694766 1.751
-0.068795688 -0.91327554 1.7440001
-0.063832521 -0.9101274 1.738
-0.05903811 -0.90907443 1.7360001
-0.054411106 -0.91064036 1.7390001
-0.049596451 -0.90906459 1.7360001
-0.044720631 -0.90591836 1.7300001
-0.040178206 -0.90958011 1.7370001
-0.035495713 -0.91062397 1.7390001
-0.030784698 -0.9111445 1.7400001
-0.025873633 -0.90485823 1.728
-0.02127295 -0.90904522 1.7360001
-0.016514374 -0.90694904 1.7320001
-0.011818466 -0.90799505 1.7340001
-0.0070666354 -0.90328133 1.725
-0.0023734015 -0.90223366 1.723
0.0023156607 -0.9038046 1.7260001
0.0070047975 -0.90328133 1.725
0.011634269 -0.89856952 1.7160001
0.016319297 -0.89961791 1.7180001
0.021015227 -0.90066695 1.72
0.025737001 -0.90224004 1.723
0.030598724 -0.90747893 1.733
0.035311114 -0.90748203 1.733
0.040046647 -0.90800905 1.7340001
0.044839311 -0.90958381 1.7370001
0.049619816 -0.91063547 1.7390001
0.054004978 -0.90487999 1.728
0.058738064 -0.90540874 1.7290001
0.063586749 -0.90750891 1.733
0.068496697 -0.91013342 1.738
0.073265404 -0.91066355 1.7390001
0.077815413 -0.90857595 1.7350001
0.082534052 -0.90858328 1.7350001
0.0869008 -0.90492541 1.728
0.091547646 -0.90441 1.7270001
0.096412107 -0.90598994 1.7300001
0.10059164 -0.90128589 1.7210001
0.10515055 -0.90024823 1.7190001
0.11001821 -0.9018296 1.7220001
0.1153686 -0.90707749 1.7320001
0.12056557 -0.91075468 1.7390001
0.12565674 -0.91338515 1.7440001
0.12980327 -0.90920758 1.7360001
0.13406147 -0.90607792 1.7300001
0.13812681 -0.90190119 1.7220001
0.14306107 -0.90348607 1.725
0.14741233 -0.90140539 1.7210001
0.15236069 -0.90299153 1.7240001
0.15696125 -0.90248311 1.723
0.16268244 -0.90826082 1.7340001
0.167788 -0.91037256 1.738
0.17281635 -0.91196126 1.7410001
0.17561769 -0.90202647 1.7220001
0.18009585 -0.90099692 1.72
0.18520805 -0.90311122 1.7240001
0.19100326 -0.9083693 1.7340001
0.19572452 -0.90838945 1.7340001
0.2005617 -0.90893418 1.7350001
0.20469479 -0.90633619 1.7300001
0.20916414 -0.90531039 1.728
0.2151082 -0.91057235 1.738
0.21984221 -0.91059589 1.738
0.22470586 -0.91114408 1.7390001
0.22786018 -0.90488142 1.7270001
0.23229617 -0.90385896 1.725
0.23685914 -0.90336114 1.7240001
0.24113683 -0.90181589 1.7210001
0.24696998 -0.90603578 1.7290001
0.25197378 -0.9071123 1.7310001
0.25773045 -0.91080987 1.738
0.26171365 -0.90821975 1.733
0.26613134 -0.90720236 1.7310001
0.27053869 -0.90618587 1.7290001
0.27461725 -0.9041217 1.725
0.27932236 -0.9041549 1.725
0.28386343 -0.90366477 1.7240001
0.28839964 -0.90317553 1.723
0.29378161 -0.90530813 1.7270001
0.29935896 -0.90796602 1.7320001
0.30391082 -0.90747952 1.7310001
0.30738813 -0.90384823 1.7240001
0.31390551 -0.90913063 1.7340001
0.3195594 -0.91179287 1.7390001
0.32244396 -0.90659106 1.7290001
0.32489631 -0.90034121 1.7170001
0.32881951 -0.89828682 1.7130001
0.33447385 -0.90095299 1.7180001
0.33897185 -0.90047389 1.7170001
0.34286478 -0.89842218 1.7130001
0.34754834 -0.89846945 1.7130001
0.35284966 -0.90009147 1.7160001
0.35733485 -0.89961636 1.715
0.36076015 -0.89651948 1.7090001
0.36565036 -0.89709574 1.71
0.37206307 -0.90134573 1.7180001
0.37873992 -0.90612215 1.7270001
0.38280264 -0.90460378 1.7240001
0.38482693 -0.89836371 1.7120001
0.3897444 -0.89894617 1.7130001
0.39535931 -0.90110439 1.7170001
0.40076432 -0.90273935 1.72
0.40500829 -0.90175152 1.7180001
0.40805012 -0.89814019 1.7110001
0.41322583 -0.89925426 1.7130001
0.41719398 -0.89774501 1.71
0.42065355 -0.89518666 1.705
0.42608282 -0.89683008 1.7080001
0.4312776 -0.89794987 1.71
0.43775976 -0.90169734 1.7170001
0.43938527 -0.89546788 1.705
0.44303015 -0.89344102 1.7010001
0.44928649 -0.89666796 1.7070001
0.45717308 -0.90304917 1.7190001
0.46297777 -0.90522999 1.723
0.4650057 -0.90005678 1.7130001
0.46862555 -0.8980372 1.7090001
0.47028622 -0.89234012 1.6980001
0.4772028 -0.89662957 1.7060001
0.48247042 -0.89776772 1.7080001
0.48860663 -0.90048498 1.7130001
0.49275637 -0.89952433 1.7110001
0.4954432 -0.89593625 1.7040001
0.49868038 -0.89340097 1.6990001
0.50189197 -0.89086699 1.6940001
0.5086664 -0.89464569 1.7010001
0.51699072 -0.90105724 1.7130001
0.52233785 -0.90221131 1.715
0.5273909 -0.90284151 1.7160001
0.53307188 -0.90452617 1.7190001
0.5365817 -0.90252942 1.715
0.54228127 -0.90421849 1.7180001
0.54226828 -0.89643514 1.7030001
0.54506534 -0.89339 1.697
0.54750758 -0.88981956 1.6900001
0.554488 -0.89362264 1.697
0.56019169 -0.89532214 1.7
0.56292409 -0.89228392 1.6940001
0.56730103 -0.89188099 1.6930001
0.57336462 -0.89411449 1.697
0.57979399 -0.89687794 1.702
0.58591062 -0.89911747 1.7060001
0.59343749 -0.90346861 1.7140001
0.59542757 -0.89938825 1.7060001
0.60159785 -0.90163636 1.71
0.6028291 -0.89650464 1.7
0.60829651 -0.89770311 1.702
0.61593962 -0.90206975 1.71
0.62399369 -0.90696788 1.7190001
0.6258831 -0.90289944 1.7110001
0.62551951 -0.89566541 1.697
0.62545228 -0.88895953 1.6840001
0.62868357 -0.88700569 1.6800001
0.63189602 -0.88505393 1.6760001
0.64458561 -0.89630842 1.697
0.64706558 -0.89330673 1.6910001
0.65529764 -0.89823222 1.7
0.65892494 -0.89682084 1.697
0.65784609 -0.88906902 1.682
0.65944397 -0.88501775 1.674
0.66774595 -0.88995731 1.6830001
0.67490417 -0.89331532 1.6890001
0.67646682 -0.88927156 1.6810001
0.67839378 -0.88575834 1.674
0.68559074 -0.88912684 1.6800001
0.69364816 -0.8935588 1.6880001
0.69761795 -0.89270127 1.6860001
0.69908148 -0.88866901 1.6780001
0.70344049 -0.88834625 1.677
0.71075505 -0.89173579 1.6830001
0.71683323 -0.89354032 1.6860001
0.72207773 -0.89428908 1.687
0.7290566 -0.89716268 1.692
0.73476833 -0.89845026 1.6940001
0.74224335 -0.90186399 1.7
0.73833185 -0.89148664 1.6800001
0.73519582 -0.88216901 1.6620001
0.74620944 -0.88984001 1.6760001
0.74924338 -0.88795954 1.6720001
0.75180924 -0.88555068 1.6670001
0.74391299 -0.87092274 1.6390001
0.75641572 -0.88020903 1.6560001
0.76396668 -0.8836562 1.6620001
0.76785827 -0.88285488 1.6600001
0.78105402 -0.89269716 1.6780001
0.78827208 -0.89563143 1.6830001
0.79411215 -0.89697474 1.6850001
0.79759985 -0.89566088 1.682
0.8039397 -0.89754653 1.6850001
0.80454391 -0.89304382 1.6760001
0.80317086 -0.88641047 1.6630001
0.80804557 -0.8867088 1.6630001
0.81537199 -0.88967896 1.6680001
0.8207683 -0.89052135 1.669
0.82321012 -0.88816679 1.664
0.83657908 -0.89756203 1.6810001
0.84254712 -0.89895684 1.6830001
0.84198874 -0.89341128 1.6720001
0.83681482 -0.88305581 1.6520001
0.83764482 -0.87911439 1.6440001
0.8461231 -0.88319921 1.651
0.87423992 -0.90762848 1.6960001
0.87982225 -0.908526 1.697
0.87759817 -0.90139598 1.6830001
0.87792176 -0.89694464 1.674
0.8597405 -0.873734 1.6300001
0.86517465 -0.87464106 1.631
0.88982958 -0.89486808 1.6680001
0.90130556 -0.90170032 1.6800001
0.90369278 -0.89941591 1.6750001
0.88652813 -0.87779611 1.6340001
0.89149445 -0.87819803 1.6340001
0.90799254 -0.88989818 1.6550001
0.92021638 -0.89731163 1.6680001
0.91921687 -0.89182138 1.6570001
0.92206621 -0.89010149 1.6530001
0.92995048 -0.89323491 1.6580001
0.92828995 -0.88721478 1.646
0.93053669 -0.88497013 1.641
0.94131708 -0.89082336 1.651
0.93956041 -0.88481271 1.6390001
0.9515745 -0.89176589 1.651
0.96135831 -0.89657182 1.659
0.95139688 -0.88300544 1.6330001
0.96178675 -0.88836706 1.6420001
0.95575804 -0.87858468 1.623
0.9779045 -0.89044189 1.6430001
0.9675529 -0.87687004 1.6170001
0.97990936 -0.88390869 1.6290001
0.98389095 -0.88336247 1.6270001
0.99699372 -0.89097273 1.6400001
1.0065285 -0.89533871 1.6470001
1.0007657 -0.88611948 1.6290001
1.0106683 -0.88673353 1.628
1.0162338 -0.88356566 1.6200001
1.0413504 -0.88934243 1.626
1.043252 -0.87926841 1.6040001
1.0734637 -0.90078902 1.6420001
1.0860943 -0.89962775 1.636
1.0809785 -0.89155561 1.6200001
1.1250885 -0.92005515 1.669
1.1145692 -0.90759891 1.6450001
1.0943741 -0.88740158 1.6070001
1.1245904 -0.90807968 1.6430001
1.1392586 -0.9160828 1.6560001
1.1471285 -0.91857541 1.659
1.1043122 -0.88062811 1.5890001
1.1141143 -0.88478094 1.595
1.1395694 -0.89759332 1.6150001
1.148407 -0.89358968 1.603
1.1427116 -0.88558 1.5870001
1.106328 -0.85053766 1.521
1.1134034 -0.85257363 1.5230001
-1.3623676 -1.0241446 1.8060001
-1.2433327 -0.97242451 1.7340001
-1.1680676 -0.92476785 1.654
-1.1563559 -0.93072164 1.6710001
-1.1408546 -0.92207897 1.6570001
-1.1484076 -0.94797385 1.7110001
-1.1080422 -0.93052554 1.6850001
-1.1074674 -0.95489836 1.7370001
-1.0573447 -0.91575968 1.6670001
-1.0297859 -0.89589971 1.6320001
-1.0915592 -0.95825487 1.748
-1.1088607 -0.97787815 1.7850001
-1.0732142 -0.95955658 1.7550001
-1.0663623 -0.95785445 1.7530001
-1.081929 -0.97636765 1.7880001
-1.0924733 -0.99050081 1.8150001
-1.0350784 -0.94733727 1.738
-1.0337247 -0.95059276 1.7450001
-0.99934477 -0.92336398 1.6960001
-0.99224824 -0.92120409 1.6930001
-0.99159718 -0.92503619 1.7010001
-0.98672646 -0.92945069 1.7110001
-1.0040338 -0.95504797 1.7600001
-0.96680576 -0.92417753 1.7040001
-0.95138001 -0.91394502 1.6860001
-0.96974963 -0.93623799 1.728
-0.99568653 -0.96609688 1.784
-0.976888 -0.95263195 1.7600001
-0.9554888 -0.93648177 1.7310001
-0.94196403 -0.92792422 1.7160001
-0.93891406 -0.92965055 1.72
-0.89188123 -0.88762194 1.6430001
-0.88257331 -0.88289768 1.6350001
-0.90016282 -0.90517133 1.677
-0.92604858 -0.93606359 1.7350001
-0.91030884 -0.9298647 1.725
-0.91771603 -0.94240397 1.7490001
-0.91559857 -0.94524395 1.7550001
-0.90982407 -0.94431859 1.7540001
-0.88395202 -0.92241132 1.7140001
-0.87781239 -0.92096919 1.7120001
-0.88392818 -0.93243945 1.7340001
-0.88232034 -0.93584311 1.7410001
-0.88219136 -0.94086158 1.751
-0.88000864 -0.94373304 1.7570001
-0.87779903 -0.94660771 1.7630001
-0.86368388 -0.93660378 1.7450001
-0.85460335 -0.93197757 1.7370001
-0.84704542 -0.92896861 1.7320001
-0.83466357 -0.920605 1.7170001
-0.82720953 -0.9176119 1.7120001
-0.85389042 -0.95266777 1.7780001
-0.86587292 -0.97163635 1.8140001
-0.8188262 -0.92420059 1.7260001
-0.8298223 -0.94210488 1.7600001
-0.81626153 -0.93217629 1.7420001
-0.81678271 -0.93830699 1.7540001
-0.80983686 -0.93588167 1.7500001
-0.78369719 -0.91661787 1.715
-0.78827101 -0.92757189 1.7360001
-0.79318112 -0.93905801 1.7580001
-0.78093523 -0.93024933 1.7420001
-0.75587076 -0.90596747 1.697
-0.76470429 -0.92226553 1.728
-0.73907185 -0.89693993 1.6810001
-0.74035937 -0.90417093 1.6950001
-0.76240033 -0.93700016 1.7570001
-0.75305551 -0.93142885 1.7470001
-0.74462998 -0.92693013 1.7390001
-0.72647291 -0.91018087 1.7080001
-0.70596343 -0.89024687 1.6710001
-0.70371407 -0.89322919 1.677
-0.72060722 -0.92070907 1.7290001
-0.72479129 -0.93220782 1.751
-0.72268891 -0.93572104 1.7580001
-0.70707965 -0.92167515 1.7320001
-0.70500106 -0.92519575 1.7390001
-0.70288748 -0.92871821 1.7460001
-0.69953972 -0.93064702 1.7500001
-0.69379222 -0.92938811 1.748
-0.68530214 -0.92441189 1.7390001
-0.67764974 -0.92050385 1.7320001
-0.67897493 -0.92882174 1.748
-0.67558676 -0.93076438 1.7520001
-0.66873503 -0.92792875 1.7470001
-0.6615355 -0.92456621 1.7410001
-0.65248793 -0.91855317 1.7300001
-0.65061873 -0.92263138 1.738
-0.64387828 -0.91981119 1.733
-0.63827592 -0.91858679 1.7310001
-0.63049275 -0.91418207 1.723
-0.62711555 -0.91614753 1.7270001
-0.62804317 -0.92447948 1.743
-0.63317502 -0.93917519 1.771
-0.63354212 -0.94697595 1.7860001
-0.61060119 -0.91978759 1.7350001
-0.60400891 -0.91699302 1.7300001
-0.59744769 -0.91420174 1.725
-0.59710145 -0.92095184 1.738
-0.59668577 -0.92770237 1.751
-0.58910298 -0.92332882 1.743
-0.58424926 -0.92319626 1.743
-0.58571434 -0.9331283 1.7620001
-0.58081347 -0.93299901 1.7620001
-0.57558852 -0.93234271 1.761
-0.56389034 -0.92110139 1.7400001
-0.55295402 -0.91092396 1.7210001
-0.54754066 -0.90974826 1.7190001
-0.55508667 -0.93027073 1.7580001
-0.55209053 -0.93332982 1.7640001
-0.54534125 -0.93004197 1.7580001
-0.54108703 -0.93098873 1.7600001
-0.54230803 -0.94145769 1.7800001
-0.52772182 -0.92442608 1.748
-0.52438295 -0.92696571 1.7530001
-0.52250046 -0.93215019 1.7630001
-0.51674795 -0.93046272 1.7600001
-0.50665146 -0.92084831 1.7420001
-0.49982533 -0.91705197 1.7350001
-0.49760503 -0.92171437 1.7440001
-0.49731496 -0.93007678 1.7600001
-0.49330103 -0.93157011 1.7630001
-0.49065766 -0.93570662 1.771
-0.48879504 -0.94142902 1.7820001
-0.47764125 -0.92919153 1.7590001
-0.46580943 -0.91537338 1.733
-0.46050736 -0.91423517 1.7310001
-0.45916721 -0.92102039 1.7440001
-0.45437026 -0.92094105 1.7440001
-0.44880152 -0.91927934 1.7410001
-0.44325081 -0.91761959 1.738
-0.43721363 -0.91490567 1.733
-0.43145484 -0.91272151 1.7290001
-0.42892778 -0.91740108 1.738
-0.42488846 -0.91891479 1.7410001
-0.42445359 -0.9283461 1.7590001
-0.41795734 -0.92458427 1.7520001
-0.41150078 -0.92082429 1.7450001
-0.40578306 -0.91864908 1.7410001
-0.4021616 -0.92122418 1.7460001
-0.39737603 -0.92116243 1.7460001
-0.39326617 -0.92268467 1.7490001
-0.38803047 -0.92157018 1.7470001
-0.38346502 -0.92203963 1.748
-0.37867856 -0.92198294 1.748
-0.37175417 -0.91665316 1.738
-0.3682642 -0.91976351 1.7440001
-0.36244974 -0.91707373 1.7390001
-0.35707504 -0.91544014 1.7360001
-0.35273245 -0.91644418 1.738
-0.34717858 -0.91428572 1.7340001
-0.34204248 -0.91318303 1.7320001
-0.33594444 -0.90944546 1.725
-0.3314217 -0.90992695 1.7260001
-0.32897645 -0.91620815 1.738
-0.3244144 -0.91669112 1.7390001
-0.32131824 -0.92139214 1.748
-0.31636286 -0.92082286 1.7470001
-0.30927336 -0.91392976 1.7340001
-0.30208001 -0.90651119 1.72
-0.2984218 -0.90963465 1.7260001
-0.29371047 -0.9095968 1.7260001
-0.29050681 -0.91430259 1.7350001
-0.28626639 -0.91584712 1.738
-0.28249624 -0.91897327 1.7440001
-0.2763052 -0.91419649 1.7350001
-0.27313781 -0.91943169 1.7450001
-0.26807091 -0.91834491 1.743
-0.26301551 -0.91725916 1.7410001
-0.25737819 -0.91406703 1.7350001
-0.25381273 -0.9182511 1.743
-0.25006139 -0.92190909 1.7500001
-0.2444502 -0.91871947 1.7440001
-0.23845989 -0.91395038 1.7350001
-0.23305799 -0.91128927 1.7300001
-0.22807975 -0.91020936 1.728
-0.22337142 -0.91018367 1.728
-0.21929623 -0.91279233 1.733
-0.21581331 -0.91803491 1.743
-0.21118647 -0.91853786 1.7440001
-0.20560765 -0.91482818 1.7370001
-0.20122379 -0.91638583 1.7400001
-0.19693688 -0.91847068 1.7440001
-0.19207755 -0.91792291 1.743
-0.18668665 -0.91474277 1.7370001
-0.1814335 -0.91209006 1.7320001
-0.17508556 -0.90364546 1.7160001
-0.17071192 -0.90520692 1.7190001
-0.16651541 -0.90782207 1.7240001
-0.16341837 -0.91675669 1.7410001
-0.15922645 -0.91989923 1.7470001
-0.15411797 -0.91777688 1.743
-0.1484316 -0.91196936 1.7320001
-0.14305429 -0.90774226 1.7240001
-0.1393259 -0.91404611 1.7360001
-0.13452446 -0.91350591 1.7350001
-0.12950426 -0.91138649 1.7310001
-0.12414556 -0.90663528 1.7220001
-0.11932162 -0.90556997 1.72
-0.11504202 -0.90871739 1.7260001
-0.11015452 -0.90712672 1.723
-0.10516113 -0.9044838 1.7180001
-0.10066301 -0.90605307 1.7210001
-0.096037209 -0.90657002 1.7220001
-0.091989659 -0.91287839 1.7340001
-0.087423988 -0.91444904 1.7370001
-0.082794525 -0.91549367 1.7390001
-0.078154318 -0.91653883 1.7410001
-0.073545508 -0.91811085 1.7440001
-0.06840764 -0.91283971 1.7340001
-0.063067146 -0.90388399 1.7170001
-0.058295373 -0.90229893 1.7140001
-0.053821631 -0.90545213 1.72
-0.049258202 -0.90755308 1.7240001
-0.044440404 -0.90491647 1.7190001
-0.039950598 -0.90912378 1.7270001
-0.035315275 -0.91069955 1.7300001
-0.030645987 -0.91174918 1.7320001
-0.02580115 -0.90700877 1.723
-0.021140106 -0.90805942 1.725
-0.016468216 -0.90911049 1.7270001
-0.011778655 -0.90963554 1.728
-0.0070386073 -0.90437067 1.7180001
-0.0023653544 -0.90384376 1.7170001
0.0023037982 -0.90384376 1.7170001
0.0069688926 -0.90331781 1.7160001
0.011628559 -0.90279222 1.715
0.016273303 -0.90174073 1.7130001
0.021004947 -0.90490085 1.7190001
0.025724441 -0.90648234 1.7220001
0.030477945 -0.90859067 1.7260001
0.035314381 -0.91227865 1.733
0.040073454 -0.91333503 1.7350001
0.044920925 -0.91597128 1.7400001
0.049510289 -0.91334361 1.7350001
0.054103784 -0.91124284 1.7310001
0.058811497 -0.91124809 1.7310001
0.063262448 -0.90756887 1.7240001
0.067990728 -0.90810168 1.725
0.072766691 -0.90916139 1.7270001
0.07755363 -0.91022146 1.7290001
0.082446717 -0.91233486 1.733
0.086909048 -0.90971082 1.728
0.090920195 -0.90287554 1.715
0.095250905 -0.89972591 1.7090001
0.10013366 -0.90184122 1.7130001
0.10473245 -0.90132481 1.7120001
0.1091982 -0.89975595 1.7090001
0.11398086 -0.90082002 1.7110001
0.11932928 -0.90609634 1.7210001
0.1242279 -0.90768808 1.7240001
0.12899348 -0.90822721 1.725
0.13267975 -0.9013958 1.7120001
0.13733833 -0.90140939 1.7120001
0.14224596 -0.9030031 1.715
0.14776979 -0.90828335 1.725
0.15211093 -0.9061926 1.7210001
0.15652166 -0.90462881 1.7180001
0.16091633 -0.90306568 1.715
0.16616389 -0.90624213 1.7210001
0.16995531 -0.90152061 1.7120001
0.17410603 -0.89890587 1.7070001
0.17927699 -0.90155762 1.7120001
0.18479781 -0.90578997 1.72
0.18959139 -0.90633678 1.7210001
0.19405212 -0.90530437 1.7190001
0.19850229 -0.90427238 1.7170001
0.20223193 -0.90008098 1.7090001
0.20676579 -0.8995769 1.7080001
0.21277997 -0.9053939 1.7190001
0.21847498 -0.90963179 1.7270001
0.22279242 -0.90807641 1.7240001
0.22617032 -0.90283459 1.7140001
0.23003286 -0.89970028 1.7080001
0.23509985 -0.9013074 1.7110001
0.24046385 -0.90396893 1.7160001
0.2454271 -0.90505099 1.7180001
0.24923711 -0.90191936 1.7120001
0.2537564 -0.90142244 1.7110001
0.2582708 -0.90092611 1.71
0.26462546 -0.9067533 1.7210001
0.27072772 -0.91152787 1.7300001
0.27496904 -0.90998077 1.7270001
0.27773708 -0.90369177 1.715
0.2819224 -0.90214592 1.7120001
0.28726369 -0.90428948 1.7160001
0.29364839 -0.90959626 1.7260001
0.29835966 -0.90963417 1.7260001
0.3023693 -0.90756482 1.7220001
0.30617946 -0.90496922 1.7170001
0.31267887 -0.91028059 1.7270001
0.31849855 -0.91348493 1.733
0.32174051 -0.9093107 1.725
0.32304713 -0.89986551 1.7070001
0.32790381 -0.90043694 1.7080001
0.33257213 -0.90048224 1.7080001
0.33684635 -0.89947408 1.7060001
0.3409104 -0.89793974 1.7030001
0.34597349 -0.89904267 1.705
0.34981456 -0.89698285 1.7010001
0.35321793 -0.89386928 1.6950001
0.35701171 -0.89181131 1.6910001
0.36185384 -0.89239132 1.692
0.36800212 -0.89613724 1.6990001
0.37484777 -0.90146714 1.7090001
0.37775189 -0.89730364 1.7010001
0.38241181 -0.89736134 1.7010001
0.38616267 -0.89530998 1.697
0.39403817 -0.90275675 1.7110001
0.39849594 -0.902291 1.71
0.40224221 -0.90024334 1.7060001
0.4071604 -0.90083557 1.7070001
0.41208532 -0.901429 1.7080001
0.41726103 -0.90255171 1.71
0.4199816 -0.89839774 1.702
0.42590314 -0.90110689 1.7070001
0.43059233 -0.90117848 1.7070001
0.43808791 -0.90705907 1.7180001
0.43894401 -0.89921379 1.7030001
0.44258463 -0.8971774 1.6990001
0.44752106 -0.8977825 1.7
0.45565653 -0.90472722 1.7130001
0.46037149 -0.90480834 1.7130001
0.46318761 -0.9011932 1.7060001
0.46596682 -0.89757913 1.6990001
0.46760109 -0.89185244 1.6880001
0.47393271 -0.8951093 1.6940001
0.47832152 -0.89466923 1.6930001
0.48327717 -0.89528787 1.6940001
0.48737615 -0.89432269 1.692
0.49146602 -0.89335907 1.6900001
0.49642754 -0.89398319 1.6910001
0.50050753 -0.89302289 1.6890001
0.50876588 -0.89946729 1.7010001
0.51558357 -0.9032709 1.7080001
0.51909113 -0.90125924 1.7040001
0.52011961 -0.89501727 1.692
0.52387542 -0.89353722 1.6890001
0.52824271 -0.89311695 1.6880001
0.53576386 -0.89799011 1.697
0.5407896 -0.89863288 1.6980001
0.54389572 -0.89610207 1.6930001
0.54568052 -0.89145535 1.6840001
0.5533005 -0.8963393 1.6930001
0.55701792 -0.89487255 1.6900001
0.56105381 -0.89393729 1.6880001
0.56407571 -0.89141512 1.6830001
0.5694381 -0.89260256 1.6850001
0.57549608 -0.89485222 1.6890001
0.58329684 -0.89975446 1.6980001
0.58838022 -0.90042073 1.6990001
0.58753747 -0.8920787 1.6830001
0.59399831 -0.89486927 1.6880001
0.59729791 -0.89289141 1.6840001
0.60558319 -0.89833963 1.6940001
0.61068511 -0.89901859 1.6950001
0.61906374 -0.90447468 1.705
0.62091589 -0.90038502 1.697
0.62125188 -0.89417392 1.6850001
0.62301004 -0.89008641 1.677
0.62772131 -0.89024699 1.677
0.63205916 -0.88987935 1.6760001
0.63297564 -0.88473499 1.6660001
0.64570493 -0.89605719 1.687
0.65045947 -0.89623022 1.687
0.65638316 -0.89800042 1.6900001
0.66193658 -0.89924264 1.692
0.65923065 -0.88932544 1.6730001
0.67229617 -0.90067464 1.6940001
0.67229474 -0.89448225 1.682
0.67706019 -0.89467335 1.682
0.68142468 -0.89433563 1.6810001
0.68823719 -0.89719385 1.6860001
0.69384968 -0.89845973 1.6880001
0.6969949 -0.8965354 1.6840001
0.69762164 -0.89141822 1.674
0.70155311 -0.89056331 1.6720001
0.70505559 -0.88917851 1.669
0.71237373 -0.89259255 1.6750001
0.71373707 -0.88854945 1.6670001
0.72195625 -0.89303839 1.6750001
0.73022658 -0.8975333 1.6830001
0.73680121 -0.89990032 1.687
0.73549116 -0.89266813 1.6730001
0.7341063 -0.88543582 1.659
0.74778956 -0.89635468 1.6790001
0.75800776 -0.90301138 1.6910001
0.7579248 -0.89738989 1.6800001
0.76141679 -0.89604384 1.677
0.76398379 -0.89363211 1.6720001
0.7773791 -0.8984428 1.6800001
0.77760255 -0.89336729 1.6700001
0.78480262 -0.89631969 1.6750001
0.79816741 -0.90623683 1.6930001
0.79883629 -0.90170747 1.6840001
0.79850513 -0.89610833 1.6730001
0.79907733 -0.89158159 1.664
0.79525578 -0.88223267 1.646
0.81029314 -0.89379245 1.6670001
0.81421399 -0.89302856 1.6650001
0.81468701 -0.88851321 1.6560001
0.82352835 -0.89312387 1.664
0.83342057 -0.89881647 1.674
0.82985806 -0.89001596 1.6570001
0.82771444 -0.88282579 1.6430001
0.83208382 -0.88262296 1.6420001
0.83441699 -0.88027418 1.6370001
0.84544492 -0.88707376 1.649
0.86635119 -0.904109 1.6800001
0.87552238 -0.90878057 1.6880001
0.86910075 -0.89730364 1.6660001
0.86832792 -0.89174956 1.6550001
0.85958356 -0.87811083 1.6290001
0.86979705 -0.88387996 1.6390001
0.8880862 -0.89775252 1.664
0.89633882 -0.90138781 1.6700001
0.89276338 -0.8931523 1.654
0.90267134 -0.89842135 1.6630001
0.89626944 -0.88748652 1.6420001
0.89743489 -0.88411808 1.6350001
0.9024322 -0.88453954 1.6350001
0.90855068 -0.88605028 1.6370001
0.91748321 -0.89027637 1.6440001
0.93376547 -0.90155655 1.664
0.9326914 -0.89605039 1.6530001
0.90603161 -0.86613941 1.5970001
0.92524213 -0.88015747 1.6220001
0.94225365 -0.88761634 1.6340001
0.95257425 -0.89299279 1.6430001
0.95188922 -0.8880499 1.6330001
0.95174074 -0.88365281 1.6240001
0.95626307 -0.88361341 1.623
0.96256989 -0.8852157 1.6250001
0.94865602 -0.86829484 1.5930001
0.97466564 -0.88790292 1.628
0.97322643 -0.88243908 1.6170001
0.97778267 -0.88243699 1.6160001
0.98356426 -0.8835355 1.6170001
0.98814458 -0.88355005 1.6160001
0.99733406 -0.88360387 1.6140001
0.9708851 -0.85625219 1.5630001
1.0109341 -0.88752902 1.6190001
0.99801219 -0.87222862 1.59
0.995013 -0.86569899 1.577
1.0716901 -0.92410409 1.6810001
1.0151885 -0.86765367 1.5760001
1.0473431 -0.88343394 1.6010001
1.0915285 -0.91670996 1.6600001
1.085903 -0.90804577 1.6430001
1.0722121 -0.89274073 1.6140001
1.1197762 -0.92835045 1.677
1.1536995 -0.95239568 1.7190001
1.1569039 -0.95098537 1.715
1.1046954 -0.90042239 1.6210001
1.1301962 -0.91734529 1.6500001
1.1428436 -0.92373735 1.6600001
1.099537 -0.88503808 1.5890001
1.1413016 -0.91485119 1.641
1.1156541 -0.89060462 1.5960001
1.1297607 -0.89816183 1.608
1.1390369 -0.9018327 1.613
1.1221157 -0.88481629 1.5810001
1.1253107 -0.866166 1.5380001
-1.2360069 -0.93395424 1.6370001
-1.1677305 -0.91431904 1.6190001
-1.1537212 -0.94122511 1.6830001
-1.1357782 -0.94239187 1.6910001
-1.1112716 -0.92600673 1.6630001
-1.1149021 -0.93302763 1.677
-1.1442553 -0.96172869 1.7300001
-1.1062211 -0.95449954 1.725
-1.0934889 -0.94771636 1.7140001
-1.0732334 -0.93432266 1.6910001
-1.0784692 -0.95165443 1.7260001
-1.0970891 -0.97249496 1.7650001
-1.0585362 -0.9513222 1.7300001
-1.0680091 -0.96878481 1.7640001
